# .PCD v0.7 - Point Cloud Data file format
VERSION 0.7
FIELDS x y z
SIZE 4 4 4
TYPE F F F
COUNT 1 1 1
WIDTH 1549
HEIGHT 1
VIEWPOINT 0 0 0 1 0 0 0
POINTS 1549
DATA ascii
0.12660135 0.17135565 1.7182064
0.13638926 0.17367399 1.7414005
0.1461219 0.17566065 1.7612135
0.15230228 0.17338699 1.7382582
0.16095941 0.17401454 1.7443895
0.17024708 0.17522728 1.7568741
0.17874452 0.17554393 1.7597792
0.18586564 0.17458634 1.7499111
0.1927886 0.17347218 1.7389607
0.20067081 0.17332123 1.7370734
0.20935409 0.17383386 1.7423211
0.22045094 0.17624068 1.7660091
0.2294521 0.17684306 1.7721571
0.25789291 0.19185804 1.9226257
0.26875329 0.19327696 1.9362468
0.2781257 0.19354667 1.9389508
0.28853032 0.19444697 1.9478514
0.29904911 0.19539899 1.9573296
0.3067297 0.19454838 1.9480238
0.31555241 0.19438611 1.9462191
0.32491145 0.19458351 1.9479547
0.33259276 0.19375096 1.93932
0.34272492 0.19438039 1.9453182
0.34998152 0.19338228 1.9349684
0.35943037 0.19364169 1.9372022
0.36850744 0.1937158 1.9368558
0.37590173 0.19289058 1.9281831
0.38475969 0.19280159 1.9267508
0.40751332 0.19954489 1.9935769
0.41411641 0.19827957 1.9803141
0 0 0
0.41716117 0.19118141 1.9081606
0.42625779 0.19127338 1.9083565
0.4382773 0.19270183 1.9212776
0.45474094 0.1959253 1.9526135
0.48806569 0.20613834 2.0534873
0.50190485 0.20788071 2.0699248
0.51182348 0.20795895 2.0697179
0.520652 0.20768607 2.0653007
0.52949494 0.2073355 2.0606985
0.538293 0.20697562 2.0560055
0.54777938 0.20697363 2.0542214
0.5583443 0.20730476 2.0562568
0.56896394 0.20768166 2.0580912
0.57931459 0.20790526 2.0589836
0.58852363 0.20777979 2.0557675
0.59777415 0.20760508 2.0526485
0.60933095 0.20826317 2.0570428
0.61982363 0.20856282 2.0578198
0.63016361 0.20873468 2.0579801
0.64240819 0.20956306 2.0638185
0.65366203 0.21006767 2.0665183
0.66476649 0.21048717 2.0682364
0.67497057 0.21063243 2.0671849
0.68747461 0.21145853 2.0728025
0.71009862 0.21532816 2.1081288
0.75205702 0.22494023 2.1987424
0.76425868 0.22544166 2.2008421
0.78137231 0.22733581 2.2163622
0.79222679 0.2274732 2.2140245
0.80535322 0.22815809 2.217633
0.82768428 0.23146978 2.2459321
0.85375106 0.23565412 2.2832215
0.90312833 0.24615866 2.3807049
0.92775106 0.2497182 2.4107747
0.94438809 0.25106707 2.4192579
0.95918381 0.2518996 2.4227262
0.97299993 0.25245792 2.4234519
0.98478228 0.25248158 2.4189546
1.0042703 0.25443667 2.4327633
1.0180115 0.25492737 2.4326036
1.0320331 0.25545615 2.4326262
1.0480659 0.25646502 2.437109
1.0644715 0.25756112 2.4422967
1.0809045 0.25861979 2.4470863
1.0957301 0.25935706 2.4479392
1.1072206 0.25923643 2.441376
1.1238595 0.26029173 2.445785
1.1420472 0.26171741 2.4536216
1.1559938 0.26204965 2.4517806
1.1647873 0.2613374 2.4394805
1.1760101 0.2611607 2.4321163
1.1932169 0.26225644 2.4372711
1.2104222 0.26334602 2.4423232
1.224858 0.26383364 2.4417593
1.2391179 0.26430821 2.4410529
1.2509782 0.26419893 2.4356337
1.2635365 0.26425204 2.4317911
1.2742518 0.26397136 2.4248745
1.2876196 0.26418748 2.4233735
1.2997916 0.26418597 2.4197819
1.3183239 0.26549461 2.4283352
1.3338194 0.26613468 2.4315188
1.3473577 0.26640359 2.43138
-1.4473211 0.28591129 2.4919801
-1.3033805 0.25973076 2.2638717
0 0 0
0 0 0
0 0 0
0 0 0
0 0 0
0 0 0
0 0 0
0 0 0
-1.1367282 0.24593288 2.1607494
-1.1174593 0.24414016 2.1481659
-1.1009138 0.2428508 2.1406903
-1.0731332 0.23906323 2.1111078
-1.0614576 0.23876451 2.1129062
-1.0450735 0.23749377 2.1054318
-1.0332593 0.23718749 2.1070454
-1.0214012 0.23682478 2.1087825
-1.0084666 0.23627423 2.1081884
-0.99541664 0.23562865 2.1073608
-0.98137212 0.23480289 2.1041102
-0.9675861 0.23396637 2.1014395
-0.95238179 0.23278247 2.0954659
-0.94312263 0.23304169 2.1024644
-0.93135923 0.23268102 2.1037979
-0.92748046 0.23430412 2.1230214
0 0 0
-1.1015522 0.28458348 2.5903485
-1.1078328 0.28951925 2.6406336
-1.0951134 0.28954706 2.6462457
-1.0803168 0.28901982 2.6466885
-1.0628539 0.28775805 2.640285
-1.0491791 0.28750369 2.6430974
-1.034925 0.28705823 2.6439664
-1.0138807 0.28478146 2.6270375
0 0 0
0 0 0
-0.65366328 0.19066866 1.7684128
-0.64535093 0.1907481 1.7716786
0 0 0
-0.7156384 0.21721327 2.0236585
-0.70883143 0.21810196 2.0346932
-0.69459039 0.2166287 2.0241654
-0.6840992 0.21636596 2.0243099
-0.67586064 0.2167954 2.0308647
-0.66811597 0.21741745 2.0392349
-0.66190869 0.21854164 2.0522013
-0.65522605 0.21953793 2.0639887
-0.64598429 0.2197144 2.0680137
-0.63363111 0.21886308 2.0616665
-0.62245309 0.21832705 2.0588984
-0.61052203 0.21750383 2.0532756
-0.59568542 0.21566573 2.0374291
-0.58402437 0.2148665 2.0319898
-0.57377517 0.21463153 2.0311329
-0.56511414 0.21492355 2.0358758
-0.55555969 0.21494251 2.0373545
-0.54537863 0.21464624 2.0364554
-0.53513271 0.21437584 2.0351181
-0.52606922 0.21459956 2.0384052
-0.50695974 0.21062616 2.0017402
-0.49839199 0.21089718 2.005996
-0.48974821 0.21123406 2.0102146
-0.48040193 0.21124236 2.0113065
-0.47163299 0.21153332 2.0149629
-0.46314338 0.21195883 2.0199027
-0.45442557 0.21229011 2.023947
-0.44263044 0.21116199 2.0140095
-0.43174794 0.21042436 2.0077257
0 0 0
-0.38591498 0.19660263 1.8771318
-0.37659395 0.19630523 1.8748734
-0.3672213 0.19596061 1.8721615
-0.35818002 0.19577469 1.8709048
-0.33328488 0.1867242 1.7848539
-0.32603699 0.18731211 1.7909137
0 0 0
-0.35207403 0.21317428 2.0389948
-0.34428313 0.21422061 2.0493772
-0.3346957 0.21416956 2.0491989
-0.32464114 0.21377876 2.0463135
-0.31443435 0.2133209 2.0421751
-0.30404961 0.21265788 2.0360081
-0.29214704 0.21093942 2.0197341
-0.28064615 0.20935121 2.0045798
-0.26772439 0.20659675 1.9782573
-0.25773978 0.20587453 1.9719777
-0.2494401 0.20660201 1.9789362
-0.24085326 0.20718165 1.9844176
-0.2316144 0.20715973 1.9840755
-0.22558248 0.21010864 2.0127797
-0.21928257 0.21304795 2.0407386
-0.20995145 0.21316402 2.0422549
-0.20015599 0.21285433 2.0390263
0 0 0
-0.16172031 0.18991627 1.8197318
-0.1512453 0.18746674 1.7959203
-0.13984032 0.18344237 1.757498
-0.1300869 0.18121345 1.7362728
-0.12127825 0.18008624 1.7255479
-0.11312968 0.17984173 1.7232271
-0.10487594 0.1794626 1.7195636
-0.097128518 0.17985193 1.7232633
-0.089007013 0.17965348 1.7212782
-0.080797337 0.17920977 1.7168908
-0.072845832 0.17923979 1.7175477
-0.064772286 0.17899267 1.714991
-0.056821212 0.17904738 1.7152739
-0.048866123 0.17903537 1.715422
-0.040932611 0.17916578 1.7163776
-0.032954574 0.17903915 1.7153225
-0.024992337 0.17894514 1.7145796
-0.016990488 0.17889984 1.7141981
-0.0090431329 0.17886475 1.7134633
-0.0011046719 0.17895684 1.7143455
0.0069080275 0.17939778 1.7185695
0.014822425 0.17881522 1.7129362
0.022825589 0.17887057 1.7138652
0.030777877 0.17893258 1.714354
0.038801756 0.17929997 1.7177159
0.046798799 0.17943935 1.7188401
0.054748714 0.17933103 1.7180969
0.062757045 0.17930584 1.717539
0.070544906 0.17880847 1.7130157
0.078235976 0.17818087 1.7071384
0.086504847 0.17901553 1.7147665
0.094431721 0.17890941 1.713833
0.10245183 0.17897449 1.7145398
0.11012956 0.17855293 1.7104793
0.11819939 0.17869431 1.7118114
0.12599881 0.17850271 1.7099539
0.13347448 0.17789605 1.7040156
0.1422479 0.17898428 1.7143115
0.15160149 0.18058962 1.7300687
0.16088541 0.1819966 1.7433641
0.17101355 0.18423121 1.7645292
0.17883627 0.1838326 1.7609372
0.18477438 0.18166082 1.7397888
0.19103043 0.17991225 1.7232103
0.19905949 0.17995191 1.7232484
0.20920484 0.18176991 1.7407199
0.22055143 0.1845486 1.7668698
0.23382208 0.18862206 1.8059332
0.25643107 0.19967653 1.9117223
0.26834652 0.20193362 1.9332807
0.27791619 0.20238832 1.937008
0.28844649 0.20347074 1.9472555
0.29754969 0.20350391 1.9474
0.30691326 0.20370081 1.9490504
0.31657109 0.20406911 1.9523401
0.32606575 0.2043459 1.9546921
0.33684006 0.20534407 1.9638815
0.34454924 0.20456089 1.955451
0.34999803 0.2024463 1.9348218
0 0 0
0.3669439 0.20187032 1.9284277
0 0 0
0 0 0
0.39598528 0.20293562 1.9368647
0 0 0
0 0 0
0.41709772 0.20007274 1.9075197
0.42670691 0.20041475 1.9100043
0.44079909 0.20280041 1.9319535
0.46060863 0.20766319 1.9774095
0.4984605 0.22030379 2.0967872
0.50204885 0.21766558 2.0700774
0.51182216 0.21768953 2.0692604
0.5211097 0.21750495 2.066395
0.52966386 0.21704862 2.06095
0.53833938 0.2166265 2.055768
0.5481987 0.2167737 2.0553045
0.55882293 0.2171202 2.0573449
0.56892097 0.21733984 2.0574272
0.57830638 0.21721689 2.054949
0.58740163 0.21702772 2.0510955
0.59670371 0.21687607 2.0482159
0.60776263 0.21741903 2.0512071
0.61877388 0.21783735 2.053566
0.62995023 0.21838452 2.0565093
0.64094824 0.21882972 2.0584145
0.65205163 0.21931744 2.0606425
0.66527605 0.22046977 2.0690291
0.67810327 0.22145702 2.0757744
0.69013733 0.22218037 2.080025
0.71307713 0.22632152 2.1161473
0.74975467 0.23464465 2.1911533
0.76600581 0.23641007 2.2047994
0.77871287 0.23714007 2.2079449
0.79094845 0.23761566 2.2093723
0.80420709 0.23845214 2.2133934
0.82497805 0.24139276 2.2374916
0.87059164 0.25150594 2.3271158
0.89147109 0.25430968 2.3488197
0.92804974 0.26144478 2.4102831
0.94301534 0.26231092 2.4145484
0.96242821 0.26445532 2.4296384
0.97680253 0.26518032 2.431637
0.99096888 0.26583236 2.4328618
1.0067176 0.2668671 2.4374781
1.021219 0.26765332 2.4389708
1.036875 0.26862046 2.4427371
1.0512495 0.26923734 2.4432068
1.0682473 0.27050459 2.4495423
1.0834622 0.27131772 2.4515612
1.0970526 0.27169031 2.4495764
1.1124151 0.27250907 2.4515083
1.1268283 0.2730802 2.4511018
1.1445795 0.2744396 2.4577315
1.1602007 0.27528489 2.4596291
1.1679027 0.2742531 2.4446757
1.1801538 0.27423593 2.4395278
1.1997873 0.27601799 2.4495239
1.2125909 0.2761445 2.445612
1.2241831 0.27594772 2.4394081
1.2384398 0.27642998 2.4385402
1.2525506 0.27684066 2.4377615
1.2657045 0.27704912 2.4351869
1.2796807 0.27746522 2.434422
1.2897483 0.27698275 2.4265916
1.303882 0.27732101 2.4266858
1.3179909 0.27777943 2.4271603
1.33129 0.27792153 2.4263382
1.3398091 0.27720186 2.417336
-1.2903769 0.26622695 2.2218952
-1.2541236 0.26097369 2.178251
-1.2372904 0.2597605 2.1683989
-1.2353896 0.26165089 2.1851737
-1.2110981 0.25881478 2.1625445
-1.1880188 0.25622901 2.1421318
-1.1726096 0.25523043 2.1355922
-1.1682522 0.25668365 2.149641
-1.1641513 0.25817233 2.1647105
-1.1354271 0.25413033 2.1339977
-1.1289312 0.25508073 2.145237
-1.1159724 0.25460464 2.1444802
-1.0954015 0.25239497 2.129082
-1.0780386 0.25084412 2.1198773
-1.0617579 0.24945833 2.112632
-1.0514702 0.2495555 2.1172316
-1.0373107 0.2486857 2.1142983
-1.0263367 0.24851343 2.1178169
-1.016217 0.24863653 2.1232345
-0.99830925 0.24685283 2.1122658
-0.98374087 0.24581026 2.1081996
-0.97032177 0.24503577 2.1063256
-0.95819819 0.24457531 2.1071267
-0.94486094 0.24380994 2.1051357
-0.94136155 0.24559428 2.1252503
-0.93837953 0.24755502 2.1468191
0 0 0
-1.1162702 0.30122408 2.6232655
-1.0858597 0.29643312 2.5868804
-1.0912647 0.30139774 2.635545
-1.0739098 0.30011943 2.6295969
-1.0580525 0.299234 2.626967
-1.0430535 0.29857275 2.6261916
-1.0287738 0.2980786 2.6268666
0 0 0
-0.74361569 0.22086515 1.9535949
0 0 0
0 0 0
0 0 0
0 0 0
-0.71466994 0.22651927 2.0198679
-0.70507723 0.22656623 2.0230536
-0.69501346 0.22643775 2.0246046
-0.68453163 0.22614402 2.0246055
-0.67585683 0.22646752 2.0300655
-0.67114425 0.22814541 2.0476217
-0.66392213 0.22898212 2.0576544
-0.65600479 0.22962165 2.0657964
-0.64575624 0.22942652 2.0664332
-0.63344181 0.2284783 2.0602736
-0.62177497 0.22780178 2.0558188
-0.6122697 0.22783816 2.0583863
-0.60248512 0.22776796 2.0599234
-0.59059834 0.2269766 2.0542696
-0.57950121 0.22637175 2.050885
-0.57045132 0.22662303 2.0545933
-0.55937892 0.22606109 2.0508602
-0.54855299 0.22551118 2.0477536
-0.53927499 0.22565223 2.0503252
-0.52931571 0.22550344 2.0501966
-0.51390898 0.22300862 2.0287232
-0.49994305 0.22102343 2.0117967
-0.49103808 0.22120266 2.0150766
-0.48219046 0.22144714 2.0183089
-0.4724831 0.22132337 2.0181842
-0.46437126 0.22195199 2.0248578
-0.45506486 0.22201861 2.026406
-0.44459274 0.2215019 2.0224998
-0.43372265 0.22075476 2.0165477
0 0 0
-0.38251251 0.20349759 1.8602747
-0.37352675 0.20338203 1.8593099
-0.37036729 0.20644197 1.8879166
-0.36110616 0.20616114 1.8859208
-0.3329947 0.19486398 1.7830609
-0.32923555 0.1975639 1.8082005
-0.36051828 0.22201335 2.0324612
-0.35181904 0.22248873 2.0373013
-0.34376729 0.22340417 2.046046
-0.33546719 0.22419837 2.0536826
-0.32591689 0.22421549 2.0542021
-0.3168447 0.22451952 2.0572224
-0.30576214 0.22341225 2.0473735
-0.29365584 0.22150113 2.0300283
-0.27826601 0.21684667 1.9875352
-0.26846084 0.21630448 1.9832313
-0.26197034 0.21859816 2.0043025
-0.25079504 0.21699865 1.9896775
-0.24029388 0.21587276 1.9793335
-0.23267132 0.21733239 1.9932609
-0.2267344 0.22054902 2.0226781
-0.2189689 0.22224087 2.0380468
-0.20988292 0.22261074 2.041806
-0.20074439 0.22301428 2.0452964
-0.19078995 0.22243102 2.040251
-0.15961498 0.19587852 1.7964574
-0.14850222 0.19222726 1.7631242
-0.14007881 0.19190362 1.7603633
-0.13041528 0.18972905 1.7405136
-0.12139785 0.18826233 1.7271553
-0.11294218 0.18756658 1.7203306
-0.10485235 0.18744406 1.7191979
-0.096766472 0.18719798 1.7169318
-0.089035474 0.187705 1.7220054
-0.080943704 0.18740685 1.7191554
-0.072673365 0.186709 1.7126393
-0.064864852 0.18715884 1.7165983
-0.056935653 0.18727028 1.7178842
-0.04905821 0.1876688 1.7213194
-0.040993873 0.18729506 1.7181025
-0.033021182 0.18731344 1.7179455
-0.025051821 0.18767725 1.7214407
-0.017018851 0.18710198 1.7162167
-0.0090468368 0.1867751 1.7133236
-0.001104453 0.18675774 1.7131643
0.0068825986 0.18656571 1.7114028
0.014839211 0.18685828 1.7140341
0.022758482 0.18664059 1.7119319
0.030737594 0.18657984 1.7112696
0.038728699 0.18680283 1.7136396
0.046707992 0.18693729 1.7146626
0.05465655 0.1869275 1.7143621
0.06263607 0.18696 1.7148799
0.070599899 0.18693168 1.7147872
0.078422979 0.18661618 1.711525
0.086335063 0.18649845 1.7105594
0.09435273 0.18670468 1.7125126
0.10180142 0.18573649 1.7036935
0.11023649 0.18665938 1.7121153
0.11847479 0.18705714 1.7157199
0.12634695 0.18693438 1.7145503
0.13379665 0.1862319 1.7080109
0.14140162 0.18580613 1.7039577
0.14953803 0.18608123 1.7062793
0.16244663 0.19197252 1.7605895
0.16959389 0.19079986 1.7495743
0.17630407 0.18926445 1.7356738
0.18316901 0.1880663 1.7243757
0.19067001 0.18753643 1.7196417
0.19865458 0.18755034 1.7193531
0.20869207 0.18941745 1.7365414
0.22038785 0.19258676 1.7656152
0.23371868 0.19690686 1.8046724
0 0 0
0.2681433 0.21079093 1.9317813
0.27867129 0.21193954 1.9421468
0.28813529 0.21226895 1.945004
0.29701003 0.21215001 1.9436924
0.30666813 0.21263452 1.9472941
0.31611952 0.21288817 1.949333
0.32615688 0.21354425 1.9549944
0.33639485 0.21424711 1.9610819
0.34284413 0.2125949 1.9455525
0.34882921 0.21074095 1.9281235
0.35566151 0.20947303 1.9160022
0.36473927 0.20958586 1.9165128
0.37378827 0.20967147 1.9167138
0.38386023 0.21027505 1.9216468
0.39399356 0.2109106 1.9268079
0.40391681 0.21140249 1.9305915
0.41230211 0.21111126 1.9272221
0.41923997 0.21007168 1.9169643
0.42944351 0.21070233 1.9218881
0.44264922 0.2127452 1.9396816
0 0 0
0.49507549 0.22855702 2.0818391
0.50327635 0.22788636 2.0746307
0.51211745 0.22749139 2.069936
0.52128482 0.22724853 2.0666273
0.52965689 0.22666939 2.0601323
0.53878337 0.22651611 2.0569177
0.54901665 0.22673081 2.057636
0.5601669 0.22733216 2.0617263
0.56900382 0.22705127 2.0572183
0.57769752 0.22663015 2.0519712
0.58678424 0.22639555 2.0484152
0.59819144 0.22708572 2.0524979
0.60894501 0.22753237 2.0543675
0.61926568 0.22773804 2.0546474
0.63030487 0.22823547 2.0568261
0.64046973 0.22842759 2.0562449
0.65024781 0.22845295 2.0540929
0.6639027 0.22975105 2.0639005
0.67899168 0.23156287 2.077693
0.69138986 0.23243901 2.0829256
0.71620953 0.23742931 2.1243422
0.73880452 0.24150801 2.1580317
0.76717412 0.24733442 2.2072213
0.77919775 0.24777956 2.2081699
0.79182863 0.24849597 2.2108788
0.80707198 0.2499081 2.2203178
0.8215335 0.2511152 2.2271812
0.86445338 0.26087996 2.3096995
0.89365739 0.26621222 2.353344
0.92201871 0.27123755 2.3933604
0.95079762 0.27628371 2.4333973
0.96606171 0.27728209 2.4375234
0.97836047 0.27743828 2.434227
0.99698037 0.27936205 2.4462419
1.0105137 0.27980956 2.4452887
1.0247836 0.28047055 2.4461002
1.0387709 0.28101778 2.445817
1.0546685 0.28206345 2.4498432
1.0697038 0.28293961 2.4514868
1.084615 0.28370523 2.4527705
1.099104 0.2843236 2.452755
1.1121819 0.28458846 2.4495909
1.1283075 0.28561914 2.4529109
1.1412203 0.28582335 2.4491088
1.1552187 0.28631282 2.4476547
1.1680002 0.28641063 2.4434667
1.1832076 0.28721705 2.4445956
1.2003949 0.28839952 2.4495957
1.2124507 0.28835577 2.4440749
1.223195 0.28804186 2.4362669
1.2375697 0.28851473 2.4358156
1.2534032 0.28935042 2.4384022
1.2690563 0.2901448 2.4406943
1.2809497 0.29002315 2.4358904
1.2894026 0.28918424 2.4251525
1.2988608 0.28853282 2.4167044
1.3166929 0.28976727 2.4241235
1.3317118 0.29041475 2.4266918
1.3340789 0.28826237 2.4065771
-1.2367736 0.26595169 2.1296546
-1.2275323 0.26629007 2.132133
-1.2178563 0.26657814 2.1342847
-1.2095538 0.26706296 2.1392198
-1.198539 0.26706985 2.1398718
-1.1854206 0.26656958 2.1371334
-1.1661716 0.2646198 2.1234288
-1.1533958 0.26416075 2.1217382
-1.138147 0.26309186 2.1157246
-1.1302961 0.26375791 2.1237278
-1.1133628 0.2622526 2.1148977
-1.104785 0.26275373 2.1222303
-1.0920264 0.26227388 2.1216345
-1.0789113 0.26165608 2.1204953
-1.0697577 0.26202923 2.1274521
-1.0572059 0.26160228 2.1278348
-1.0413368 0.26026163 2.121419
-1.0315922 0.26047522 2.1275773
-1.0204315 0.26027641 2.1308861
-1.0045803 0.2589556 2.1244605
-0.99041969 0.25797346 2.1212907
-0.97608078 0.2570141 2.1176097
-0.9615016 0.25589672 2.1131079
-0.95439327 0.25678423 2.1251576
-0.94625503 0.25741121 2.1350071
-0.93672514 0.25766939 2.141814
-0.93869233 0.26105905 2.1751766
-0.93071193 0.26180148 2.1859584
-0.91884434 0.26147577 2.1877558
-0.90406001 0.26028168 2.1821887
0 0 0
0 0 0
0 0 0
0 0 0
-0.75124389 0.22971921 1.9445804
-0.7272464 0.22522555 1.9095237
0 0 0
0 0 0
0 0 0
0 0 0
-0.71387392 0.2359436 2.016753
-0.70445031 0.23602107 2.020138
-0.69519258 0.2360895 2.024009
-0.68579042 0.23617582 2.0274057
-0.67696291 0.23646343 2.0324674
-0.67286491 0.23843342 2.0520127
-0.66578776 0.23936418 2.0625112
-0.65592086 0.23932698 2.0646775
-0.64525878 0.23903392 2.0639915
-0.63452339 0.23863383 2.0628803
-0.62307817 0.23797344 2.0595076
-0.61280453 0.23778504 2.0595722
-0.60333651 0.23783796 2.0622299
-0.59819293 0.23968919 2.0798535
-0.58423877 0.23794258 2.0668294
-0.57390136 0.23769894 2.0662031
-0.56775326 0.23923528 2.0809891
-0.5533365 0.23718175 2.0650501
-0.5422675 0.23657942 2.0611532
-0.5330326 0.23676518 2.0640531
-0.51459807 0.23282039 2.0309222
-0.50390816 0.23226215 2.0272424
-0.49343914 0.23181146 2.0244312
-0.48638368 0.23294237 2.0353701
-0.47631136 0.23267087 2.0340579
-0.46556288 0.23204611 2.0295882
-0.45575598 0.23186913 2.0290306
-0.44467846 0.23101914 2.0224507
-0.43463251 0.23067443 2.0202892
0 0 0
0 0 0
-0.38381922 0.21784657 1.9101813
0 0 0
-0.34809759 0.2071536 1.8176094
-0.33475748 0.20419142 1.7922038
0 0 0
-0.36065432 0.23155932 2.0329287
-0.3527694 0.23259103 2.0425234
-0.34324062 0.23255888 2.0426507
-0.33515733 0.23352486 2.0515459
-0.32853559 0.23563398 2.0704887
-0.31733468 0.23443203 2.0602107
-0.30804494 0.23465209 2.062428
-0.29397357 0.23111883 2.031652
-0.27108678 0.22023174 1.9360942
-0.26494414 0.22260645 1.9571776
-0.26091242 0.22703089 1.9961654
-0.24972455 0.2253163 1.9811767
-0.239742 0.22452901 1.9748167
-0.2311998 0.22513816 1.9801381
-0.22817501 0.23144636 2.035583
-0.21897118 0.23168887 2.0381696
-0.20963708 0.23179691 2.0390196
-0.19656272 0.22764444 2.002332
-0.18900514 0.22978684 2.0215006
-0.1584262 0.20262283 1.7827621
-0.14834149 0.20025015 1.7616366
-0.13795638 0.19702712 1.7334541
-0.13115948 0.19892253 1.7503027
-0.12141896 0.19635516 1.7273084
-0.11269523 0.19511651 1.7164757
-0.10476504 0.19525836 1.7177873
-0.097108305 0.19585982 1.7230364
-0.089034349 0.19575904 1.7221075
-0.080725051 0.19487903 1.7147877
-0.073014922 0.19560592 1.7210358
-0.06506554 0.195779 1.7224104
-0.057251025 0.19644853 1.7281523
-0.049126364 0.19602849 1.7246692
-0.041048631 0.19572155 1.721715
-0.033035897 0.1955725 1.7205623
-0.025092885 0.19587272 1.7233624
-0.017057773 0.19539863 1.7192967
-0.0090672392 0.19510381 1.7162914
-0.0010524432 0.19475463 1.7132198
0.0068880217 0.19459976 1.7118576
0.014838446 0.19474144 1.7130512
0.022788903 0.19473195 1.7133781
0.030727975 0.19468066 1.7127689
0.038693659 0.19478439 1.7135236
0.046667773 0.19483531 1.7142242
0.054648601 0.19493267 1.7148699
0.062605724 0.19487874 1.7145957
0.070477739 0.19464278 1.7122037
0.078344643 0.19438937 1.7101216
0.086278431 0.19432363 1.7095853
0.09418565 0.19431376 1.7095931
0.10276636 0.19553126 1.7198285
0.11077216 0.19559863 1.7204102
0.11862719 0.19526154 1.7178466
0.12641564 0.19498542 1.7153012
0.13390943 0.19430822 1.7092278
0.14162548 0.19400534 1.706395
0.14909609 0.19347867 1.7015945
0.15703307 0.19345719 1.7015941
0.16507572 0.19366571 1.7031546
0.17348082 0.1942036 1.7080742
0.18184943 0.19469893 1.7120498
0.19080156 0.19569393 1.7208835
0.19958328 0.19643225 1.7274609
0.20929766 0.19809201 1.7415612
0.22064935 0.20101298 1.7672187
0 0 0
0.24772434 0.21002218 1.8463186
0.26820228 0.21985759 1.9321108
0.27781466 0.22032954 1.9360528
0.28820676 0.22140947 1.9453353
0.29736277 0.22149569 1.9458251
0.30581573 0.22106141 1.9416822
0.31440431 0.22074042 1.9385351
0.31770939 0.21686526 1.9041221
0.32575527 0.21630244 1.8987993
0.33680296 0.21774204 1.9109337
0.3471061 0.21863253 1.918303
0.35619047 0.21876076 1.9188615
0.36518931 0.21872973 1.9185482
0.37429744 0.21885052 1.9189798
0.38431537 0.21944527 1.9235647
0.39433521 0.22004206 1.9281026
0.40314218 0.21994518 1.9264997
0.41335204 0.22062834 1.9317263
0.42269337 0.22079183 1.9323386
0.42961848 0.21973868 1.9222448
0.44268635 0.22180133 1.9393413
0.46317223 0.22738799 1.9872169
0.49319234 0.23736845 2.0734236
0.50332302 0.23757108 2.0740445
0.51346153 0.23779511 2.0748494
0.52156174 0.23704973 2.0671966
0.53007627 0.23651165 2.0612261
0.5393824 0.23642907 2.0586581
0.55058867 0.23707175 2.0629046
0.56052107 0.23717633 2.0624628
0.56985343 0.23699605 2.0594773
0.57838941 0.23658407 2.0538459
0.5873788 0.23627397 2.0496063
0.59869432 0.23698178 2.0536232
0.6100145 0.23757561 2.0571437
0.62104523 0.23812678 2.059648
0.63104671 0.23824559 2.0584049
0.64058566 0.23814526 2.0557716
0.65299815 0.23913825 2.0619283
0.66570586 0.24020657 2.0686457
0.67820019 0.24116616 2.0743372
0.7014007 0.24584897 2.1119916
0.71891898 0.24843422 2.1314785
0.73604858 0.25081313 2.1490693
0.76853496 0.25835767 2.2101219
0.78038549 0.2587609 2.2105882
0.79354423 0.25957933 2.2144413
0.8085866 0.26105464 2.2232499
0.82745534 0.26371151 2.2419879
0.85821885 0.26996851 2.2917645
0.92711413 0.28795996 2.4400861
0.94092381 0.28863138 2.4412768
0.95454139 0.28920373 2.4416103
0.96822077 0.28978071 2.4418037
0.98376781 0.29087207 2.4463046
0.99881226 0.29181433 2.4493561
1.0129901 0.29246071 2.4498975
1.0263249 0.29285142 2.4481988
1.0413349 0.29372871 2.4504642
1.0554534 0.29431462 2.4501917
1.0713706 0.29538324 2.4539089
1.0864516 0.29620007 2.4553361
1.0994493 0.2965419 2.4521224
1.1142308 0.29727158 2.4526973
1.1285907 0.29787433 2.4521174
1.1422225 0.29819122 2.4498487
1.1527495 0.29780191 2.4410141
1.1656222 0.29804161 2.4372554
1.1864061 0.30019516 2.4497831
1.2008003 0.30074444 2.4491704
1.2134138 0.30086029 2.4449296
1.2255765 0.30086142 2.4397523
1.2387381 0.30108097 2.4371026
1.2539284 0.3018015 2.4384048
1.2683526 0.30227804 2.4383929
1.2810202 0.30234575 2.4351547
1.2875892 0.3010408 2.4208696
1.2992638 0.30091229 2.4168177
1.3149205 0.30171296 2.4202149
1.3319646 0.30280036 2.426652
1.347307 0.30349591 2.4300144
-1.25418 0.28071788 2.1596868
-1.232103 0.27818254 2.1400642
-1.2103707 0.27570474 2.1210363
-1.199504 0.27566287 2.1213243
-1.1935539 0.2767857 2.1307249
-1.1747367 0.27490357 2.1175609
-1.1621661 0.27447137 2.1156983
-1.1535946 0.27497268 2.1215992
-1.1424434 0.27489144 2.1230772
-1.1265525 0.2736302 2.1160688
-1.1177281 0.27403459 2.1224971
-1.1051269 0.27361754 2.122061
-1.0947912 0.27364269 2.1261852
-1.0807678 0.27284503 2.1233315
-1.0709381 0.27304164 2.128773
-1.0567856 0.27209073 2.1258957
-1.0431919 0.2713753 2.124186
-1.0305858 0.27082887 2.1243458
-1.019748 0.27077767 2.1283777
-1.0089687 0.27066711 2.1324365
-0.99496579 0.26977226 2.1297278
-0.98118043 0.26886389 2.1273782
-0.96944082 0.26850253 2.1292624
-0.95805812 0.26825339 2.1320257
-0.94622093 0.2678701 2.1336398
-0.93080467 0.26645362 2.1269932
-0.91748148 0.26561108 2.1247463
-0.90524602 0.26506773 2.1248698
-0.89390528 0.26479784 2.1271007
-0.88231725 0.2644262 2.1284328
-0.86884063 0.26347309 2.1249924
-0.85629737 0.26278356 2.1235809
-0.84061503 0.26110223 2.1141174
-0.82744032 0.26016808 2.1105232
-0.74685198 0.23773018 1.9321303
-0.73331571 0.23636161 1.9245503
0 0 0
-0.67378676 0.22280693 1.8201962
-0.67686766 0.22673489 1.8555008
0 0 0
0 0 0
-0.70360827 0.24534097 2.0167961
-0.70736074 0.25007364 2.0584939
-0.71400267 0.25597358 2.109849
-0.70268673 0.25551003 2.108743
-0.68612641 0.25309661 2.0915122
-0.68427938 0.25609174 2.1188445
-0.67343652 0.25578293 2.1188662
-0.66081357 0.25475019 2.112808
-0.65133947 0.25494295 2.1168363
-0.63990134 0.25439978 2.1141851
-0.62896931 0.2539717 2.1129766
-0.61725456 0.25327417 2.1088855
-0.6040538 0.25189045 2.0995569
-0.59426415 0.25194329 2.1016297
-0.58560497 0.25248083 2.1076808
-0.57779402 0.25333682 2.1168928
-0.56825566 0.2535471 2.1201527
-0.55430979 0.25172782 2.1063638
-0.5424999 0.25082541 2.100163
-0.5303489 0.2497554 2.0924807
-0.51422691 0.24670322 2.0681691
-0.50367737 0.24628581 2.065861
-0.49694872 0.24771912 2.0790148
-0.48715803 0.24768078 2.0798228
-0.47845742 0.24820101 2.0852566
-0.46847513 0.24805872 2.0851247
-0.45191923 0.24435054 2.0549364
-0.43481773 0.24021044 2.0210197
0 0 0
-0.38901699 0.2246177 1.8913926
-0.38507533 0.22751449 1.9160095
0 0 0
-0.34701857 0.21500185 1.811956
-0.33894685 0.21520883 1.8142757
0 0 0
-0.36853179 0.2462928 2.0769613
-0.35870641 0.24617362 2.0765476
-0.34736317 0.24497026 2.0668559
-0.34135082 0.2475574 2.0891476
-0.33118653 0.24723747 2.0869102
-0.32271793 0.24814436 2.0948987
-0.31476521 0.2495601 2.1071856
0 0 0
-0.27034241 0.22859001 1.930675
-0.26238889 0.22945505 1.938168
-0.25389624 0.22993921 1.9423844
-0.24998072 0.23474847 1.9831393
-0.23910107 0.2331266 1.9695052
-0.23056364 0.23374045 1.9746975
0 0 0
-0.21719755 0.23918591 2.0211804
-0.205415 0.2364618 1.9981053
-0.1952827 0.23539582 1.9894387
-0.18583541 0.23514618 1.9872122
-0.15716162 0.20920335 1.7682183
-0.14707533 0.20663787 1.7463243
-0.13862139 0.20613286 1.7422469
-0.13046427 0.20594257 1.7407753
-0.12228572 0.205828 1.7394903
-0.11334296 0.20434709 1.7270573
-0.10461215 0.20294018 1.7152486
-0.097042337 0.2037306 1.7219052
-0.089333154 0.20445594 1.7280116
-0.081083082 0.20382062 1.7226181
-0.073169529 0.20406818 1.7250288
-0.065263912 0.20428827 1.726759
-0.057187401 0.20413461 1.7252769
-0.049102701 0.20382653 1.7229379
-0.0409378 0.20305359 1.7161696
-0.03304651 0.20351364 1.7202163
-0.025042931 0.20335494 1.7190334
-0.017077582 0.20355631 1.7203416
-0.0090809539 0.20326553 1.7179898
-0.0010538977 0.2028753 1.7146915
0.0068985582 0.20274387 1.7135807
0.014857361 0.20283985 1.7143393
0.022847816 0.20315032 1.7168577
0.030782115 0.20287733 1.7148906
0.038743645 0.20289017 1.714841
0.046762615 0.2031482 1.7168107
0.054764964 0.20321657 1.7176236
0.062628314 0.20285667 1.7143182
0.070430696 0.20235018 1.7101667
0.078350954 0.20237595 1.7104608
0.086354949 0.20246023 1.7112497
0.094605923 0.20305145 1.7162708
0.10270942 0.20340803 1.7188616
0.11075096 0.2035466 1.7200031
0.11858389 0.20324887 1.7178525
0.12635095 0.20283766 1.7142423
0.1338965 0.20229384 1.7095121
0.14149795 0.20180944 1.7052319
0.14952801 0.20189703 1.7061772
0.15709634 0.20149313 1.702525
0.1655366 0.20207064 1.7075576
0.1732319 0.20183176 1.7052466
0.1814701 0.20216128 1.708078
0.19018416 0.2030151 1.7148917
0.1986766 0.20357037 1.7196296
0.20997971 0.20679 1.7467673
0.22094744 0.20949456 1.7695524
0.23356968 0.21356539 1.8034039
0 0 0
0.26824263 0.22886039 1.932246
0.27805999 0.22952129 1.9375783
0.2878814 0.23018441 1.9429278
0.29691094 0.23018599 1.9426322
0.3054353 0.22980027 1.9390076
0.31256291 0.22840905 1.9269015
0.31782171 0.22580352 1.9044979
0.32593819 0.22526689 1.8995494
0.33295041 0.22404912 1.8888012
0.34681726 0.22732207 1.9163507
0.35746622 0.22846311 1.9253597
0.36676881 0.22866562 1.9264553
0.37582746 0.22874095 1.9264172
0.38481107 0.22872669 1.925624
0.39344427 0.22853906 1.9233109
0.40233362 0.22853418 1.9224752
0.41134655 0.22849903 1.9218917
0.42047924 0.22858308 1.9217418
0.42926785 0.22850759 1.9201891
0.44152993 0.23024154 1.933834
0.45968091 0.23487891 1.971776
0.4826915 0.24179423 2.0287266
0.50279617 0.24701059 2.0713658
0.51415211 0.24783957 2.0771191
0.52241427 0.24713834 2.0699804
0.53052777 0.2463889 2.0624437
0.54037362 0.24651724 2.0616436
0.5501821 0.24658591 2.0608239
0.5605256 0.24685442 2.0616055
0.57057828 0.24701186 2.0614548
0.5800212 0.24693777 2.0587566
0.58924609 0.2467345 2.0555296
0.59872681 0.24661186 2.0528433
0.61033618 0.24744429 2.0575523
0.62133491 0.24797878 2.0597703
0.63223737 0.24841683 2.0615947
0.6422745 0.24854325 2.060277
0.652619 0.24878113 2.0598123
0.66723907 0.25061595 2.0724809
0.67946041 0.25150779 2.0772555
0.7057873 0.25751883 2.1242383
0.71919334 0.25871059 2.1313221
0.75695515 0.26850674 2.209101
0.78277802 0.27382964 2.2498374
0.79582465 0.27469566 2.2532091
0.81510514 0.27756312 2.2735543
0.84014714 0.28236371 2.3089516
0.88487059 0.29349205 2.3963547
0.91574472 0.29984987 2.4439366
0.92963976 0.30058381 2.4454982
0.94388741 0.30130583 2.4475961
0.959822 0.30262029 2.4536607
0.97281098 0.30298543 2.4519212
0.98594266 0.3033607 2.4502525
0.99913651 0.30377063 2.4486887
1.013043 0.30436063 2.4485605
1.0270871 0.30505919 2.4485486
1.0411345 0.30568716 2.4485214
1.0572723 0.30688384 2.4529374
1.072844 0.30789113 2.4557197
1.0871166 0.3085072 2.4553542
1.100547 0.30889651 2.4530842
1.1132889 0.3090862 2.4491363
1.1282511 0.30988169 2.4498882
1.1416601 0.31023824 2.447149
1.1555661 0.31076562 2.4456589
1.172703 0.31205869 2.4507332
1.1818017 0.3112064 2.4389491
1.2009139 0.31302333 2.4480653
1.2133996 0.31311378 2.4436452
1.2247027 0.3128362 2.4369218
1.2388445 0.31340519 2.4361312
1.2529796 0.31381282 2.4354565
1.2670162 0.31432995 2.4348767
1.2803831 0.31452155 2.4331501
1.2917595 0.31434417 2.427994
1.3026717 0.31403014 2.4224336
1.3124954 0.31341153 2.4151771
1.3234736 0.31312972 2.4106007
1.3407047 0.31426615 2.417752
-1.2442191 0.28937629 2.1427245
-1.2172319 0.28560495 2.1142263
-1.2052805 0.28529206 2.1120431
-1.1930186 0.28494218 2.1096597
-1.1771848 0.28369376 2.1012435
-1.1666409 0.28367966 2.1026583
-1.15949 0.28460008 2.110451
-1.1558528 0.28630531 2.1252465
-1.1416535 0.2854504 2.1210387
-1.1296674 0.2850942 2.1212192
-1.1187137 0.28502637 2.1235349
-1.1045007 0.28416979 2.1199596
-1.0910755 0.28344095 2.1179357
-1.0807047 0.28347912 2.1221776
-1.0673925 0.2827554 2.120702
-1.0575784 0.28298926 2.1264706
-1.0459324 0.28274944 2.1286025
-1.0303586 0.28137609 2.122649
-1.0155696 0.28020939 2.1182849
-1.008572 0.28122944 2.1303747
-0.99625736 0.28069901 2.1312735
-0.98234165 0.2797015 2.1285269
-0.96841645 0.27877238 2.1256485
-0.9560073 0.2782115 2.1261005
-0.94412518 0.27779329 2.1275547
-0.93137056 0.27710611 2.1269305
-0.91711825 0.27595276 2.122555
-0.90613395 0.27569652 2.1256046
-0.89526594 0.27554289 2.1288209
-0.88288039 0.27493516 2.1284456
-0.86999357 0.27413273 2.1264706
-0.85394061 0.27230141 2.1164737
-0.83984351 0.27105689 2.1108503
-0.8119849 0.26528576 2.0698712
-0.74588847 0.24670181 1.9284937
-0.73037905 0.24467793 1.9156462
0 0 0
-0.68302977 0.2346876 1.8440173
-0.68006533 0.2367671 1.8631693
0 0 0
-0.70491111 0.2520088 1.9893451
-0.69754791 0.25281397 1.9984404
-0.723028 0.26561606 2.103056
-0.71488672 0.26631826 2.1114304
-0.70644486 0.26692492 2.1189911
-0.69667339 0.26703754 2.1226361
-0.68413955 0.26607704 2.1176724
-0.67241734 0.26537943 2.1146464
-0.66429335 0.26619598 2.1232085
-0.65202737 0.26525226 2.1181355
-0.64097691 0.26477942 2.1167397
-0.63034016 0.26455957 2.116816
-0.62044668 0.26454836 2.1190338
-0.61008221 0.26439837 2.1195934
-0.59906113 0.26391163 2.1179228
-0.58724993 0.2630896 2.1128731
-0.5795148 0.26409209 2.1225429
-0.56979239 0.26420352 2.1249213
-0.55648905 0.26265585 2.1139462
-0.54557818 0.26216444 2.1113923
-0.53571922 0.26219752 2.1130588
-0.52710521 0.26281416 2.1193628
-0.51737088 0.26291409 2.1214354
-0.50663847 0.26246083 2.1189744
-0.49595314 0.26204452 2.1168063
-0.48607108 0.26203886 2.1178858
-0.47373527 0.26067728 2.1079326
-0.46015573 0.25855365 2.0918024
-0.44017974 0.25269815 2.0453823
-0.40722787 0.23898806 1.9348185
-0.39474329 0.2369062 1.9187957
-0.37034383 0.22740613 1.8425905
-0.35728523 0.22457927 1.8203582
-0.34449279 0.2217813 1.7983425
0 0 0
0 0 0
-0.37471417 0.26020351 2.1114259
-0.36493742 0.26022714 2.1121957
-0.35715747 0.26177415 2.1247954
-0.34669748 0.26131183 2.121556
-0.33614546 0.26079452 2.1178019
-0.3261134 0.26065364 2.1171029
-0.31631181 0.26063147 2.1173017
0 0 0
-0.27369934 0.24051081 1.9544233
-0.26216981 0.23825973 1.9363559
-0.25555891 0.24052601 1.9549406
-0.24788244 0.24191085 1.9663634
-0.23942627 0.24260233 1.9720906
0 0 0
-0.20684247 0.22693312 1.8448019
-0.19882911 0.22755206 1.850341
-0.19130374 0.22886276 1.8609264
-0.19478841 0.24408332 1.9846101
-0.18464017 0.2428128 1.9746376
-0.15722556 0.2175709 1.7691834
-0.14673413 0.21418884 1.7419438
-0.13943328 0.21547307 1.7521577
-0.1306745 0.21445674 1.7440474
-0.12183411 0.21315625 1.7336246
-0.11292978 0.21154451 1.720615
-0.10486384 0.21142244 1.7192903
-0.096928447 0.21149468 1.7198708
-0.089090064 0.21180102 1.7223549
-0.081267558 0.21228425 1.7267097
-0.073095314 0.21191277 1.7235749
-0.065161936 0.21204162 1.7245096
-0.057149492 0.2120952 1.7248322
-0.048997138 0.21149196 1.7201381
-0.040941101 0.21120325 1.7175716
-0.032857459 0.21051942 1.7121685
-0.024991615 0.2112399 1.7181867
-0.017036835 0.21158479 1.7206674
-0.0090361042 0.21131803 1.7185508
-0.0010545816 0.21086359 1.7148552
0.0069080857 0.21088119 1.7149982
0.014882195 0.2110422 1.7162548
0.022880606 0.21131533 1.7183704
0.030860927 0.21127053 1.7183301
0.038774006 0.21090949 1.7152354
0.04679019 0.21113677 1.7168726
0.054734547 0.21117181 1.7173758
0.062596641 0.21072973 1.7139456
0.070494115 0.21053402 1.7120378
0.07852225 0.2106759 1.7132512
0.086505748 0.21080168 1.7143339
0.094533443 0.21087824 1.7149634
0.10254468 0.21100947 1.7160376
0.11048028 0.21096978 1.7156689
0.11837205 0.21085022 1.7145981
0.12621787 0.21066239 1.7129191
0.13389875 0.21023157 1.709265
0.14189689 0.21026058 1.7097256
0.14969598 0.21012273 1.7084006
0.15759769 0.21005996 1.7075807
0.16535199 0.20982525 1.7057917
0.17362495 0.21023038 1.7092047
0.18168701 0.21039948 1.7102162
0.18996798 0.21073993 1.7129971
0.19791634 0.21074671 1.7130128
0.20748505 0.21240227 1.7259957
0.22400025 0.22077642 1.7939473
0.23329259 0.22167823 1.8011216
0.25602269 0.23483543 1.9078603
0.26851442 0.23802596 1.9335558
0.27820179 0.23864791 1.9383218
0.28741804 0.23883185 1.9395293
0.29657507 0.23894961 1.9401381
0.30388165 0.23760641 1.9288862
0.30891842 0.23460956 1.9041568
0.31758979 0.23450047 1.9028106
0.3259823 0.2340887 1.8994305
0.33438376 0.2337963 1.8965385
0.34939611 0.23805739 1.9305146
0.35859597 0.23819853 1.9310687
0.36771682 0.23827566 1.931042
0.37626296 0.23795763 1.928242
0.38494492 0.23779029 1.9261738
0.3934983 0.23754743 1.923434
0.40231359 0.23746461 1.9219302
0.41192251 0.23783837 1.9240592
0.42110202 0.23794836 1.9240518
0.42952311 0.23760208 1.9208437
0.43988994 0.23837747 1.9260899
0.45637059 0.24233104 1.9569947
0.48662525 0.2533268 2.0447047
0.50310707 0.25686252 2.0720067
0.51347786 0.25723144 2.0737438
0.5218901 0.25658667 2.0673087
0.53115237 0.25637093 2.0642021
0.54081494 0.25634798 2.0626476
0.55046231 0.25641024 2.0611842
0.56015486 0.25639319 2.0596089
0.57053876 0.25671285 2.0606697
0.58028632 0.25670683 2.0590465
0.58959436 0.25657117 2.0557907
0.60274673 0.25804597 2.0659552
0.6126864 0.25815439 2.064573
0.62225789 0.25806588 2.0620775
0.63290262 0.25845349 2.0627863
0.64350933 0.25881204 2.0632553
0.6530093 0.25865307 2.0600581
0.67026645 0.26161492 2.0810919
0.68645161 0.26402506 2.0976832
0.7316398 0.27738577 2.2009788
0.73872125 0.2761243 2.1881254
0.77595139 0.28600842 2.2634306
0.80669862 0.29331067 2.3174484
0.83273661 0.2986514 2.3563349
0.8467105 0.29965505 2.3603232
0.85716963 0.29932785 2.3542709
0.8952567 0.30860791 2.4230525
0.91419691 0.31102863 2.4383652
0.93156195 0.3129636 2.4491053
0.94686329 0.31413907 2.4537768
0.96082544 0.31484675 2.4546864
0.97408944 0.31531125 2.4536829
0.98667163 0.31552058 2.4505215
1.000041 0.31599933 2.4494419
1.0136149 0.31650519 2.4484766
1.0266873 0.31684455 2.4460464
1.0425087 0.31801468 2.4500062
1.0581611 0.31921399 2.4534392
1.0733635 0.32014763 2.4554262
1.0879506 0.32087898 2.4556694
1.1001031 0.32090813 2.4505262
1.1130744 0.32117292 2.4470949
1.1258503 0.32137623 2.4431043
1.1409845 0.32218182 2.4443038
1.1573787 0.3234036 2.4479139
1.1757754 0.32509342 2.455564
1.1875701 0.32504648 2.4495201
1.1979352 0.32446864 2.4406593
1.2103992 0.32456791 2.4361823
1.2220138 0.32439888 2.4303997
1.2345117 0.32448399 2.426434
1.2536048 0.32632452 2.4356472
1.2676463 0.32678342 2.4351397
1.2803627 0.3269119 2.4321568
1.2916313 0.3266466 2.4269521
1.2966477 0.32477176 2.4104273
1.3060105 0.32406539 2.4026728
1.320098 0.32456729 2.4038715
1.3307317 0.32418826 2.3993306
-1.2315397 0.29721621 2.121002
-1.2123188 0.29514274 2.1058145
-1.1952903 0.29359567 2.0944641
-1.1791983 0.29224026 2.0851579
-1.1664579 0.29172453 2.0819123
-1.1625466 0.29339904 2.094897
-1.1565373 0.29454303 2.1046276
-1.148176 0.29515237 2.1106904
-1.1371382 0.29503489 2.1120808
-1.1295422 0.29584834 2.1202095
-1.1191075 0.29590434 2.1235142
-1.1025124 0.29435048 2.1152451
-1.0909961 0.29409587 2.11689
-1.0776109 0.293363 2.1150751
-1.0643804 0.29262093 2.1136968
-1.0573391 0.29362014 2.124896
-1.0469154 0.29368794 2.1293652
-1.0316826 0.29235968 2.1241462
-1.0178417 0.29142186 2.1218002
-1.0073649 0.29145712 2.1264501
-0.9956131 0.2910676 2.1284499
-0.97997642 0.28961527 2.1221201
-0.96532333 0.28835168 2.1176565
-0.95425367 0.28814271 2.1208417
-0.94229448 0.28767937 2.1220725
-0.92992359 0.28707853 2.1222007
-0.92016816 0.28728071 2.1282587
-0.91149938 0.28783062 2.1368334
-0.89742744 0.28666735 2.1326087
-0.88206834 0.28508368 2.1251435
-0.87006444 0.28453651 2.1253018
-0.85634911 0.2834098 2.1211066
-0.83301699 0.27903438 2.0923769
-0.81870222 0.27760911 2.0856855
-0.81988961 0.28147027 2.1186769
-0.79112744 0.27499375 2.0736809
-0.78169644 0.27515769 2.0786734
0 0 0
0 0 0
-0.72226405 0.26441252 2.0070033
-0.71972072 0.26699743 2.0300682
0 0 0
-0.71948433 0.27433866 2.0917218
-0.71176094 0.27520785 2.1011717
-0.70403552 0.27603063 2.1107378
-0.69469291 0.27630222 2.1155095
-0.68375045 0.27600247 2.1153805
-0.67071873 0.27473751 2.1082938
-0.66429621 0.27620879 2.1221371
-0.65461892 0.27632019 2.1255453
-0.64176112 0.2751669 2.1185536
-0.63004613 0.27437273 2.114835
-0.61971444 0.27426094 2.1157756
-0.6105898 0.27458557 2.1206069
-0.60016978 0.2743943 2.1207941
-0.58904397 0.27389529 2.118597
-0.57926506 0.27397943 2.1209066
-0.56987292 0.27418032 2.1245086
-0.55907041 0.27379596 2.1230495
-0.54834008 0.27339506 2.1213894
-0.53698897 0.27269337 2.1173878
-0.5270189 0.27263996 2.1183474
-0.51770335 0.27295986 2.1221404
-0.50751847 0.27281967 2.1222887
-0.49689299 0.2724573 2.1201839
-0.48647815 0.27216029 2.1190386
-0.4653163 0.26570857 2.0698776
-0.4526217 0.26395375 2.0572712
-0.42901897 0.25558043 1.9929756
-0.41122907 0.25043347 1.9533074
-0.39423934 0.24551971 1.9158479
-0.36674833 0.23368187 1.824241
-0.35386601 0.23086326 1.8024962
-0.3457078 0.23099926 1.804258
-0.37516668 0.25689465 2.0072329
-0.36885247 0.25902596 2.0246058
-0.36194769 0.26090053 2.0394201
-0.36651298 0.27124345 2.1208894
-0.35709479 0.2715643 2.1240184
-0.34668502 0.27117208 2.1215031
-0.33621231 0.27071124 2.117867
-0.32598355 0.27040175 2.1159298
-0.31602934 0.27029952 2.1155477
0 0 0
-0.26924714 0.24554096 1.9224089
-0.26256171 0.24763384 1.9390562
-0.25524002 0.24930421 1.9523379
-0.24637468 0.24952555 1.9542736
0 0 0
-0.21220949 0.23202324 1.8174026
-0.2040101 0.23228538 1.8195313
-0.1957925 0.23260577 1.8220598
-0.1870643 0.23218478 1.8192214
0 0 0
0 0 0
-0.15861638 0.22772858 1.7844619
-0.14967386 0.22681515 1.7771577
-0.13758898 0.22060117 1.7286917
-0.12985842 0.22111748 1.7329068
-0.1218406 0.22122705 1.7335155
-0.11325578 0.22018115 1.725435
-0.1051489 0.21996789 1.7238256
-0.097169995 0.22000054 1.7241433
-0.089061536 0.21970987 1.721874
-0.081187569 0.22013095 1.7251296
-0.073093154 0.2198099 1.7225691
-0.065035492 0.21970016 1.7216119
-0.057194449 0.22032619 1.7267833
-0.049141757 0.22002345 1.724207
-0.040967047 0.21916047 1.7176557
-0.032994468 0.21927573 1.7183561
-0.025055191 0.21966992 1.7215512
-0.017068524 0.21982349 1.7228608
-0.0090451362 0.21941066 1.7192636
-0.0010549071 0.21878773 1.7143823
0.0069099925 0.21879885 1.7144694
0.014889522 0.21896045 1.7160966
0.022837553 0.21922994 1.7181559
0.030851152 0.21945062 1.7197267
0.038784008 0.21912436 1.7170113
0.046650141 0.21854405 1.7127192
0.054706555 0.21893182 1.715494
0.062722191 0.21902567 1.7163793
0.070607439 0.2188461 1.7150689
0.078727491 0.21925183 1.7179312
0.086641878 0.21914364 1.7171277
0.094427846 0.21862502 1.7130553
0.10216861 0.21819507 1.7096249
0.11025937 0.21851307 1.7120552
0.1181576 0.21842533 1.7112535
0.12608571 0.21834098 1.7108917
0.13403299 0.21833812 1.7107024
0.14200513 0.21836787 1.7107157
0.15001413 0.21846665 1.7116306
0.15785718 0.21836822 1.7105863
0.16580139 0.21828489 1.7100217
0.17348064 0.21798587 1.7073008
0.18137591 0.21797857 1.7072787
0.18900613 0.21759707 1.704273
0.19653243 0.21717572 1.7005428
0.20681073 0.21970975 1.7202601
0 0 0
0 0 0
0.25907391 0.24661152 1.9304123
0.26857147 0.24707131 1.9337504
0.27746314 0.24700765 1.9329309
0.28718051 0.24765252 1.937655
0.29496437 0.24663419 1.929306
0.30093026 0.24419361 1.9098366
0.30568057 0.24086948 1.8838072
0.31636512 0.24237125 1.8951174
0.32600954 0.24301019 1.8995584
0.3353357 0.24337828 1.9018791
0.34899831 0.2467878 1.9278978
0.35922849 0.24759357 1.9340372
0.36729133 0.24695407 1.9283551
0.37632036 0.24701311 1.9280678
0.38564914 0.247256 1.929214
0.39414746 0.24690151 1.9260496
0.40314943 0.24692374 1.9254122
0.41296592 0.24742773 1.9284077
0.42223343 0.24761879 1.9289607
0.43087262 0.24740113 1.926329
0.43883118 0.24677815 1.9208939
0.45800033 0.25241181 1.9636648
0.49487358 0.26735002 2.0787318
0.50426364 0.26717955 2.0761285
0.51312745 0.26677114 2.0716774
0.52231503 0.26650465 2.0682652
0.53143805 0.26621079 2.0646417
0.54214483 0.26670188 2.0670381
0.5524413 0.26700452 2.0679026
0.56097597 0.26642415 2.0619285
0.57017136 0.26623324 2.0583975
0.58021945 0.26640245 2.0580921
0.59088552 0.26681113 2.0595658
0.60327297 0.26803303 2.0667944
0.61384147 0.26838154 2.0677185
0.62312394 0.26819924 2.0639737
0.63347501 0.26840699 2.0636735
0.64653593 0.26982945 2.072186
0.65832949 0.27065921 2.0760586
0.67093688 0.27179235 2.0821717
0 0 0
0.75152999 0.29571995 2.2597163
0.7594924 0.29464453 2.2484801
0.78383207 0.29983377 2.2850068
0.82111651 0.3097901 2.3576293
0.84000242 0.31267616 2.3757191
0.8525911 0.31309536 2.3754578
0.86749774 0.31441921 2.3814487
0.89482176 0.32004401 2.4203677
0.91200268 0.32204768 2.4312086
0.93108582 0.3246364 2.4463241
0.9467715 0.32599074 2.4520032
0.96078074 0.32666057 2.453033
0.97334766 0.32690862 2.450274
0.98546517 0.32705569 2.4459841
0.99993235 0.32791734 2.4476309
1.0149138 0.32889894 2.4499831
1.0291203 0.32960945 2.4502902
1.0422438 0.3299607 2.447829
1.0576015 0.33102885 2.450582
1.0716931 0.33165577 2.4499602
1.0857888 0.33227 2.4492245
1.0998392 0.3328819 2.4482875
1.1122485 0.33298925 2.4436274
1.1254929 0.33334163 2.4407582
1.1411996 0.33443236 2.4431059
1.1558194 0.3351261 2.4431291
1.1709239 0.33602601 2.4440224
1.1833427 0.33608499 2.4393051
1.1957786 0.33619282 2.4349368
1.2072567 0.33594683 2.4286084
1.2172455 0.33533806 2.4196649
1.2290291 0.33525035 2.4144857
1.2460775 0.33656734 2.41992
1.2641741 0.3381567 2.4274399
1.2776314 0.33844206 2.4260917
1.2833391 0.3367264 2.410491
1.2921751 0.33591521 2.4014666
1.3035785 0.33564946 2.3975439
1.3212787 0.33713409 2.4055932
1.352947 0.34201017 2.439095
0 0 0
-1.2114367 0.30569732 2.1043298
-1.1836317 0.30132541 2.0740917
-1.1723533 0.30109182 2.0729182
-1.1670781 0.30245608 2.0828927
-1.1626841 0.30410361 2.0948215
-1.1613908 0.30649978 2.113009
-1.147457 0.30562419 2.1087921
-1.1373205 0.30580431 2.1118503
-1.1286856 0.30635327 2.1179652
-1.1179508 0.30637074 2.1205513
-1.1037616 0.30541295 2.1168835
-1.0919371 0.30503863 2.1177495
-1.0819321 0.30522799 2.1225953
-1.066739 0.30395931 2.1172113
-1.0565506 0.30407009 2.1219993
-1.0457486 0.30397129 2.1258307
-1.0326619 0.30329219 2.1250081
-1.0202019 0.30270922 2.1254206
-1.0081429 0.30227634 2.1267972
-0.99634838 0.30193469 2.1287301
-0.97999537 0.30011594 2.1207235
-0.96645743 0.29915181 2.1187112
-0.95677465 0.29944474 2.1250107
-0.94303548 0.29840997 2.1223121
-0.93036318 0.2976934 2.1217785
-0.92057139 0.29789278 2.1277647
-0.90915442 0.29756477 2.1299109
-0.89512712 0.29629397 2.1257229
-0.88113099 0.29510042 2.1214716
-0.86861271 0.29435536 2.1203456
-0.83048427 0.28480959 2.0556772
-0.82673866 0.28696656 2.0752323
-0.82403743 0.28954354 2.0978904
-0.80702817 0.28709462 2.0840664
-0.79477006 0.28633937 2.0819259
-0.78194124 0.28531116 2.0782077
-0.77039421 0.28470498 2.0774736
-0.6820488 0.2553938 1.8663863
-0.67282218 0.25525686 1.8686246
-0.70648587 0.27167028 1.9916854
-0.69549906 0.2710377 1.9902911
-0.67979133 0.26861271 1.9752258
-0.69894063 0.28005865 2.0621831
-0.69780385 0.28358454 2.0909696
-0.69091707 0.28483984 2.1029243
-0.67591995 0.28273731 2.0900798
-0.66240996 0.28120163 2.0813222
-0.66380465 0.28601074 2.1194866
-0.65437466 0.28632739 2.1238966
-0.64173794 0.28512609 2.1174083
-0.62846768 0.28369746 2.1087048
-0.61499196 0.28202552 2.0986035
-0.6042347 0.2816627 2.0977256
-0.59872949 0.2837404 2.1149652
-0.58807415 0.28333437 2.1141365
-0.57761455 0.28310868 2.1140759
-0.56732672 0.28292236 2.1142385
-0.55668068 0.28257698 2.1132076
-0.54586715 0.2820929 2.1111338
-0.53476268 0.28146815 2.1078658
-0.52680576 0.28246668 2.116755
-0.5200457 0.28418902 2.1310127
-0.50851989 0.28331822 2.125761
-0.49736473 0.28261796 2.1217809
-0.48531631 0.28143275 2.1135819
-0.45902392 0.27169219 2.0415874
-0.44620392 0.26967737 2.0275319
-0.42450193 0.26208648 1.9714514
-0.40550691 0.255963 1.92584
-0.39941621 0.25778228 1.9404398
0 0 0
-0.35525021 0.24018116 1.8091036
-0.350429 0.24265318 1.8284074
-0.37466231 0.26590356 2.0044119
-0.36272284 0.26402485 1.990461
-0.35945937 0.26850265 2.02491
-0.35782754 0.27446595 2.0705235
-0.35215655 0.27763295 2.0945699
-0.34506154 0.27974939 2.1111236
-0.33556485 0.27997768 2.1133671
-0.32565942 0.27991706 2.1134295
-0.31397933 0.27833703 2.1014576
-0.28223935 0.25822413 1.949962
-0.2701757 0.25536907 1.9287559
0 0 0
-0.25926504 0.26246583 1.9828974
-0.24583732 0.25805661 1.9498215
0 0 0
-0.20992543 0.23789321 1.7977371
-0.20220275 0.23862159 1.8033469
-0.1932583 0.23789918 1.7979368
-0.18469431 0.23760702 1.7961423
-0.17788418 0.23970087 1.8119638
-0.17283489 0.2444828 1.8480479
-0.15996364 0.23805436 1.7998133
-0.1485019 0.23318122 1.7627999
-0.13773772 0.22892149 1.7308345
-0.12947489 0.2285008 1.7274873
-0.12144358 0.22849305 1.7276121
-0.11362145 0.22889811 1.7308049
-0.10549083 0.22868793 1.7292925
-0.097332411 0.22842234 1.7269582
-0.089267328 0.22827537 1.7258704
-0.081285454 0.22841904 1.7273291
-0.073317952 0.22852625 1.7280568
-0.064969972 0.22750089 1.7202204
-0.057131313 0.22799428 1.7238684
-0.049116023 0.22800453 1.7241583
-0.041029125 0.22767453 1.7214739
-0.033074822 0.22765441 1.7214807
