# .PCD v0.7 - Point Cloud Data file format
VERSION 0.7
FIELDS x y z
SIZE 4 4 4
TYPE F F F
COUNT 1 1 1
WIDTH 1461
HEIGHT 1
VIEWPOINT 0 0 0 1 0 0 0
POINTS 1461
DATA ascii
-0.27019036 -0.14813617 1.9312612
-0.26156324 -0.1483386 1.9335376
-0.19553262 -0.17819791 2.3224225
-0.18781763 -0.18114869 2.360877
0.48417118 -0.1571776 2.039588
0.50468659 -0.16070439 2.0839074
0.56149954 -0.17215189 2.2301624
0.57606381 -0.173344 2.2448189
1.0454823 -0.19181193 2.3732462
1.0588903 -0.19214249 2.3721688
1.3145549 -0.19885279 2.3749371
-1.2644933 -0.17139798 2.1778715
-1.2933491 -0.17689945 2.2477336
-1.2998185 -0.1793462 2.2798805
-1.2797261 -0.17816655 2.2660906
-1.1380864 -0.15990409 2.0348902
-0.61274236 -0.13549717 1.8461415
-0.60196179 -0.13504718 1.8419889
-0.58009064 -0.13205738 1.8030845
-0.56755102 -0.13113259 1.7922604
-0.55816042 -0.13090312 1.7909225
-0.54926485 -0.13079645 1.7912006
-0.53794533 -0.13009843 1.7833686
-0.56312859 -0.15029445 2.0690911
-0.53379452 -0.15022177 2.071882
-0.51356345 -0.14997697 2.0705047
-0.50328594 -0.14982626 2.0689051
-0.27138868 -0.13979903 1.9396291
-0.26332051 -0.14028533 1.9467444
-0.19510645 -0.16700029 2.3173692
-0.18777896 -0.17010225 2.3602772
0.57520801 -0.1656426 2.2847579
0.82713902 -0.17123863 2.3172538
-1.2768753 -0.16191328 2.1992834
-1.2883458 -0.16478567 2.2389836
-1.2899462 -0.16646008 2.2625828
-1.2851479 -0.16736737 2.2758443
-1.1424108 -0.15017405 2.0428824
-0.59900445 -0.12389584 1.8051566
-0.59225583 -0.12428332 1.8126936
-0.57760108 -0.12299694 1.7957439
-0.56545401 -0.12221233 1.7860303
-0.55861259 -0.12255364 1.7927634
-0.54595757 -0.12162139 1.780799
-0.53555501 -0.12116783 1.7758235
-0.53152263 -0.12214903 1.7917669
-0.53789401 -0.12566134 1.8440318
-0.53410947 -0.12681618 1.8625385
-0.51738501 -0.12921065 1.9013973
-0.5114792 -0.12996006 1.9138362
-0.48754358 -0.12838587 1.8924963
-0.47403234 -0.12950058 1.9114888
-0.47256812 -0.13161209 1.9429907
-0.46720493 -0.13263346 1.959316
-0.44071311 -0.12765278 1.8859441
-0.43275991 -0.12786493 1.8901591
-0.43629336 -0.13439254 1.987939
-0.42492038 -0.13369673 1.9786496
-0.42036685 -0.13524303 2.001622
-0.39179659 -0.13831867 2.0488136
-0.36583081 -0.13576387 2.0115693
-0.32602993 -0.12752593 1.8899529
-0.31570631 -0.12687755 1.8809377
-0.29496741 -0.13333139 1.9768012
-0.28392586 -0.13243401 1.963932
-0.27170026 -0.13093194 1.9420271
-0.26488891 -0.13208176 1.9584975
-0.19948155 -0.14389154 2.1338561
-0.1961512 -0.15710689 2.3296442
-0.1875919 -0.15901542 2.3577399
-0.10081365 -0.14449738 2.1420112
0.45701772 -0.13860109 2.0485873
0.57800227 -0.1586962 2.3408427
0.80485153 -0.15800174 2.2892811
0.83203268 -0.16119735 2.3317208
-1.3250959 -0.15635872 2.2822082
-1.2943482 -0.15416653 2.2494984
-1.286659 -0.15456747 2.2570345
-1.2692013 -0.15388562 2.2476768
-1.1466916 -0.14029247 2.0507984
-0.58863926 -0.11669318 1.8304075
-0.54709256 -0.11347105 1.7848859
-0.53917652 -0.11357997 1.7881564
-0.5436638 -0.11633236 1.8330823
-0.53499591 -0.1163822 1.834422
-0.53748059 -0.11883722 1.8746825
-0.51925892 -0.12071289 1.9086063
-0.5243718 -0.12401355 1.9621714
-0.49688339 -0.121815 1.9290624
-0.47101495 -0.11984794 1.8993773
-0.46492428 -0.12054706 1.9116094
-0.45711747 -0.12083329 1.9173019
-0.44646534 -0.12040526 1.9106462
-0.43314889 -0.11917827 1.8921924
-0.42490211 -0.11932182 1.8954294
-0.42705148 -0.12251078 1.9460998
-0.42986134 -0.12596577 2.0019293
-0.41400954 -0.12398113 1.9713186
-0.38149762 -0.12540601 1.9952537
-0.36172006 -0.12500392 1.9892439
-0.34050643 -0.12072283 1.9217188
-0.32585552 -0.11867939 1.8887899
-0.31588909 -0.11821043 1.8818564
-0.28930938 -0.12175452 1.9390801
-0.28046772 -0.12180176 1.9401367
-0.26961073 -0.12103029 1.9272021
-0.2619656 -0.12160128 1.9365975
-0.19900119 -0.13369167 2.1286724
-0.1969147 -0.1391467 2.2164812
-0.086369939 -0.14357692 2.2854116
-0.075967014 -0.14400765 2.2926886
-0.065387771 -0.1440355 2.2934129
-0.012254745 -0.14549853 2.3165009
0.020222353 -0.14677283 2.3367178
0.031101191 -0.14685483 2.3379517
-1.292529 -0.14122775 2.2262056
-1.2963341 -0.14292488 2.2530329
-1.2808852 -0.14245233 2.246984
-1.2651193 -0.14195824 2.2406595
-1.1450088 -0.12966152 2.0479779
-0.39825076 -0.11562519 1.9853735
-0.37552986 -0.11714178 2.0134485
-0.33562002 -0.11020709 1.8943387
-0.32689616 -0.11021943 1.89501
-0.31743354 -0.10997329 1.8912357
-0.28088686 -0.11301496 1.9431611
-0.27050987 -0.11242899 1.9333131
-0.09032879 -0.12380319 2.1284249
-0.089867495 -0.13840322 2.3786144
-0.078864455 -0.13837656 2.3785927
0.43150759 -0.12039371 2.0661135
1.3613791 -0.15592511 2.460763
-1.2959094 -0.13141729 2.2523572
-1.2793571 -0.13088819 2.2443616
-1.2393924 -0.12795268 2.1952243
-0.83639276 -0.12316868 2.2395368
-0.82388377 -0.12287201 2.2380052
-0.80669284 -0.1219327 2.2234106
-0.27069008 -0.10352375 1.9346521
-0.26289698 -0.10399596 1.9436156
-0.25636363 -0.10501351 1.9626517
-0.24769525 -0.10519478 1.9660584
-0.23990223 -0.10579804 1.977352
-0.23337765 -0.1070263 2.0002041
-0.089747652 -0.1271728 2.3760965
-0.078803904 -0.12729304 2.3773482
0.25906467 -0.12507562 2.337764
0.93576795 -0.12985224 2.3401899
-1.3310573 -0.12213169 2.2925608
-1.293241 -0.11971373 2.2477818
-1.2769426 -0.11927269 2.2402625
-1.2506615 -0.1178227 2.2152376
-0.72039086 -0.089888029 1.7734318
-0.83744383 -0.11257106 2.2428632
-0.8251195 -0.11240018 2.2418725
-0.80751371 -0.11142112 2.2261796
-0.38569796 -0.096317202 1.9691994
-0.38113967 -0.097486429 1.9935726
-0.2702651 -0.094399109 1.9316655
-0.26265499 -0.094895869 1.941803
-0.089645602 -0.11597356 2.3720546
-0.078585804 -0.11592131 2.3713484
-0.0531606 -0.10890776 2.2270956
0.30082393 -0.11359685 2.324796
0.28466141 -0.10028996 2.0525253
-1.2964392 -0.10855276 2.2534027
-1.2631968 -0.10666891 2.2162044
-0.72914416 -0.079453617 1.7234004
-0.72899324 -0.081356674 1.7705458
-0.7203036 -0.081339695 1.7736263
-0.83555126 -0.10165265 2.2381098
-0.82119673 -0.10118771 2.2317231
-0.80392152 -0.10040016 2.2165821
-0.39070204 -0.086249433 1.9481691
-0.38518038 -0.087051257 1.9666728
-0.08803983 -0.10306929 2.3300638
-0.078320883 -0.10462052 2.3638601
0.30550259 -0.091274716 2.0640707
-1.0651287 -0.08426521 1.9659607
-0.96209228 -0.08233615 1.9478041
-0.71917951 -0.070136353 1.7002428
-0.83279049 -0.09062507 2.2311511
-0.82242256 -0.090709448 2.2352931
-0.80840927 -0.090314135 2.2293901
-0.40266359 -0.076019444 1.9180841
-0.39092001 -0.077236757 1.9493173
-0.38520437 -0.077922322 1.96685
-0.3828589 -0.079336733 2.0027232
-0.087699778 -0.091957055 2.3214898
-0.077874586 -0.09301886 2.3486545
0.32275584 -0.081259869 2.0517325
0.3641209 -0.081935219 2.0690408
-1.0752283 -0.071611159 1.8866225
-1.063607 -0.071488552 1.8842719
-0.83577782 -0.069489792 1.8986486
-0.73800868 -0.063467816 1.7450467
-0.7156077 -0.063782543 1.7626173
-0.83148253 -0.079880416 2.2280827
-0.82289636 -0.080062442 2.2370174
-0.80972695 -0.079797499 2.2333868
-0.42182305 -0.067268066 1.9228806
-0.40319681 -0.067179494 1.9206383
-0.18957186 -0.074572779 2.1337628
-0.086811043 -0.080284424 2.2965276
-0.07653974 -0.080701806 2.3088195
-0.064346127 -0.078898147 2.2575629
-0.033151489 -0.079577468 2.2757072
-1.0948122 -0.063185602 1.921018
-1.0835464 -0.063128352 1.919627
-1.0705208 -0.064711608 1.9763459
-0.83111978 -0.063414223 2.0197196
-0.82537407 -0.067837991 2.1804967
-0.42022395 -0.058141559 1.9156177
-0.37460649 -0.060895395 2.0088618
-0.066035554 -0.070282213 2.3171899
1.3512529 -0.080312967 2.4438334
-1.112164 -0.054775853 1.9704802
-0.82700545 -0.05340869 2.0098255
-0.66504645 -0.044561267 1.6845374
-0.66853982 -0.045901962 1.7415979
-0.81865925 -0.056907237 2.1630399
-0.82478356 -0.058866221 2.2426059
-0.81079453 -0.05861428 2.2367847
-0.52520299 -0.05354806 2.0790131
-0.4331958 -0.04867968 1.8933491
-0.06570901 -0.059229661 2.3060131
-0.055628594 -0.05990224 2.3324835
-0.031663444 -0.055825904 2.1741569
1.4690956 -0.09286391 3.4815319
1.3478661 -0.067775972 2.4378092
-1.3092906 -0.051260453 2.2551417
-1.3053811 -0.051540814 2.2691545
-1.2775297 -0.050956279 2.2416823
-1.2518513 -0.050375685 2.2179296
-1.1476798 -0.046605192 2.0536447
-0.68725276 -0.037202202 1.7169464
-0.66847229 -0.036621768 1.6933815
-0.66817635 -0.037052192 1.7164891
-0.8284716 -0.048358653 2.2528536
-0.81626421 -0.048333835 2.2521667
-0.44780743 -0.043836273 2.086359
-0.064855963 -0.047843423 2.2738473
-0.054403942 -0.047933906 2.2784259
1.4591278 -0.076381385 3.5055463
1.4721473 -0.076179437 3.4892263
1.4939564 -0.076425813 3.4932046
-1.298064 -0.039454833 2.2358265
-1.3006511 -0.039884087 2.2608147
-1.292382 -0.039993573 2.2677631
-1.272446 -0.039744187 2.2544358
-0.77765709 -0.032705802 1.9429929
-0.837183 -0.037505448 2.2442589
-0.82819146 -0.037648395 2.2523115
-0.81804788 -0.037663616 2.2570324
-0.57755154 -0.034308031 2.0873032
-0.3855913 -0.030075088 1.8368146
-0.37316403 -0.029746599 1.8184521
-0.36433446 -0.029748512 1.8167518
-0.35725096 -0.029841829 1.824096
-0.069685429 -0.034457706 2.1011503
-0.064418353 -0.037037104 2.2587118
-0.053189609 -0.036525343 2.2277741
1.4798908 -0.059497774 3.5079284
1.4944819 -0.059398752 3.4947813
1.3462301 -0.042887095 2.4350529
-1.2870258 -0.027851269 2.2168357
-1.2724943 -0.028288186 2.2546792
-0.76878661 -0.024950894 2.090708
-0.41331697 -0.022078898 1.8843014
-0.36720505 -0.021432644 1.83118
-0.35811418 -0.021440217 1.8286172
-0.32352707 -0.020865593 1.7794266
-0.03852424 -0.023542592 2.0031993
1.3508013 -0.030674858 2.4433377
-1.313228 -0.016922219 2.26191
-0.77500498 -0.014888325 2.0775981
-0.58618182 -0.013627872 1.9146855
-0.56328648 -0.013292369 1.8701111
-0.55175579 -0.013220322 1.8625242
-0.47546357 -0.013825187 1.956356
-0.46819097 -0.013870041 1.9648609
-0.32305863 -0.012567373 1.7769604
-0.31335425 -0.012501272 1.7690398
-0.03844545 -0.01415769 1.9991635
-0.029517934 -0.014418613 2.0274551
-1.2854759 -0.0052350406 2.2141097
-1.1620349 -0.0049435915 2.0795071
-0.64091897 -0.0047302619 1.9646986
-0.62396365 -0.0046703867 1.9426939
-0.60264355 -0.0045761126 1.9062864
-0.58856648 -0.0045344103 1.8915747
-0.57470965 -0.0044936636 1.8772131
-0.56337345 -0.0044712177 1.8704594
-0.54943198 -0.0044270945 1.8544805
-0.31183177 -0.0042559719 1.7604991
-0.30191264 -0.0042286203 1.7505404
-0.077600285 -0.0044694189 1.8289422
-0.070046894 -0.004526455 1.8526782
1.3648564 -0.0059401472 2.4686906
-1.1660434 0.0056172009 2.0866807
-0.63669556 0.0045106839 1.9515599
-0.62025195 0.0044569005 1.9311377
-0.60680056 0.0044233715 1.919436
-0.58993143 0.0043631294 1.8959615
-0.57934111 0.0043486818 1.8923411
-0.55834484 0.0042540561 1.8537641
-0.49872932 0.0041778367 1.8347087
-0.52624291 0.0044823717 1.9708741
-0.39146736 0.0043752948 1.952293
-0.35728776 0.0043891347 1.9652352
-0.30128759 0.0038952609 1.7469163
-0.29322633 0.0038931028 1.7473003
-0.1992823 0.0047043692 2.1316674
-0.077579297 0.0040213889 1.8284475
-0.069325365 0.0040318468 1.8335943
-1.3208597 0.017743131 2.2750547
-1.1645381 0.016174141 2.0839143
-0.6590367 0.014005729 1.9891971
-0.64622647 0.013925374 1.9807098
-0.61004961 0.013526462 1.9296517
-0.59910995 0.013477666 1.92546
-0.3744666 0.013452068 1.9590106
-0.36077511 0.013273065 1.9345642
-0.34960777 0.013182617 1.9229919
-0.30312833 0.012083766 1.7575349
-0.29297209 0.011993325 1.7457311
-0.28909633 0.012164402 1.7720027
-0.11631329 0.013059737 1.9067799
-0.10574016 0.012844792 1.875913
-0.096134081 0.012719453 1.8580623
-0.086761661 0.012611689 1.8427703
-0.077122919 0.01243739 1.8176913
-0.042882912 0.015247257 2.2299113
-0.032782089 0.015394523 2.2516551
-1.2818531 0.028438875 2.2077138
-0.52245128 0.021250095 1.8238025
-0.35862491 0.022149133 1.9229746
-0.29838085 0.020467946 1.7779052
-0.28355139 0.019992629 1.7379076
-0.29553685 0.022799429 1.9807997
-0.24998312 0.024616558 2.1420355
-0.11395651 0.021477519 1.8680871
-0.10483315 0.021375956 1.8597651
-0.095809579 0.021278443 1.8517338
-0.085098147 0.020763727 1.8073829
-0.076111495 0.020603256 1.7937436
-0.04634494 0.0222835 1.9412723
-1.2667027 0.039192248 2.1816761
-0.53429419 0.030023079 1.8337395
-0.45091331 0.031347886 1.9307392
-0.28258994 0.027959051 1.7319078
-0.27475825 0.027963305 1.7334571
-0.11253025 0.029782441 1.8445935
-0.10437524 0.029886186 1.8515285
-0.094509207 0.029474815 1.8264894
-0.084645718 0.029002558 1.7976092
-0.07546071 0.028684849 1.7782977
-0.055629119 0.031447724 1.9505332
-0.66044456 0.042299215 1.9929981
-0.28278211 0.036017735 1.7329782
-0.27492645 0.036074378 1.7343576
-0.27741417 0.037474856 1.8029693
-0.18662454 0.046028171 2.216141
-0.11495449 0.039124861 1.8841588
-0.10358007 0.038196553 1.8372542
-0.093272477 0.037485391 1.8034884
-0.084475808 0.037276801 1.7938912
-0.047979537 0.041721337 2.0094347
-0.038850054 0.042061824 2.0230441
-0.02332638 0.048877735 2.3511555
-0.28367323 0.044204623 1.7385538
-0.27501929 0.044138242 1.7351209
-0.27409863 0.045288738 1.7816137
-0.19006312 0.05738537 2.2567661
-0.093606122 0.046028543 1.8097737
-0.086219132 0.046550501 1.830688
-0.047302872 0.050452359 1.9833895
-0.01133542 0.054580376 2.1462603
0.020093461 0.058936104 2.3174696
0.041710105 0.05908931 2.3232102
0.084895663 0.05905785 2.3236282
0.09602657 0.059268627 2.3314939
1.3444006 0.068271667 2.43115
-0.59855753 0.054659128 1.7785416
-0.59562081 0.060261779 1.976788
-0.51226807 0.059193227 1.9534998
-0.3293888 0.059060305 1.9626615
-0.28983665 0.053406861 1.7761078
-0.27488339 0.052157085 1.734049
-0.26758897 0.059477765 1.9779403
-0.24796642 0.063869148 2.1245308
-0.20526923 0.069461577 2.3100047
-0.19797015 0.070647039 2.3503642
-0.18760601 0.070911892 2.3576398
-0.10261586 0.05473217 1.8206937
-0.094410993 0.054849889 1.8251119
-0.0565763 0.059668899 1.9852643
-0.047174677 0.059496872 1.9777728
-0.038237639 0.059879296 1.9906675
0.028865395 0.065211959 2.1681488
0.039311811 0.065853968 2.1893604
0.080072567 0.065879099 2.1912835
0.089717835 0.065539978 2.1796038
0.10578338 0.069440193 2.3088863
-1.2830994 0.084733725 2.2097087
-1.1692429 0.079978876 2.0917439
-0.56243587 0.064682178 1.8362583
-0.52140325 0.068298832 1.9520385
-0.30405656 0.072996929 2.1030252
-0.26936451 0.069089852 1.9912113
-0.21035849 0.082169011 2.3677306
-0.20071372 0.082754232 2.3834388
-0.18714039 0.081612796 2.3514283
-0.16858155 0.078055941 2.2497747
-0.15715937 0.0776214 2.2360301
-0.13699476 0.072425209 2.0869827
-0.13050002 0.074281611 2.139245
-0.12260009 0.075502492 2.1749375
-0.11181773 0.082411125 2.3751104
-0.10038981 0.082104266 2.3646896
-0.089066058 0.081793889 2.3561823
-0.077966206 0.081630982 2.3518488
-0.047086697 0.068489745 1.9737828
-0.038277652 0.069191881 1.9924463
0.065303564 0.071058288 2.0473669
0.079019852 0.075118452 2.1639535
0.089222752 0.075246505 2.1673114
0.098934434 0.074976325 2.1590674
-1.2569511 0.094024807 2.1645579
-1.2588489 0.096654072 2.2296908
-0.56965798 0.072043613 1.8006867
-0.56939268 0.073126562 1.8289247
-0.39253992 0.075419649 1.9122608
-0.35489964 0.074952155 1.9025908
-0.21143974 0.093608417 2.3794632
-0.20062585 0.093742199 2.3819573
-0.18862224 0.093257971 2.3705974
-0.17224102 0.090449408 2.2981892
-0.15990676 0.089494854 2.2747016
-0.13577269 0.081400327 2.0679858
-0.12762438 0.08230941 2.0917215
-0.11993842 0.083690077 2.127394
-0.12272895 0.093407549 2.3731468
-0.11248685 0.094006866 2.3888848
-0.10051978 0.093205303 2.3690224
-0.089379139 0.093064137 2.3640313
-0.077714749 0.092254929 2.3439054
-0.047511071 0.078353733 1.9912068
0.10839133 0.08454524 2.1481192
0.1195174 0.085360102 2.1682925
-1.2761635 0.10665746 2.1976559
-1.2909154 0.10878856 2.2433686
-1.2935768 0.11001866 2.2690649
-1.2798771 0.10981052 2.26682
-1.1780182 0.10197792 2.1070275
-0.82097471 0.098550953 2.1674836
-0.57552475 0.080198891 1.7905149
-0.5778228 0.081685126 1.8263296
-0.58050072 0.083329178 1.8644381
-0.25714511 0.086604536 1.9686157
-0.21117394 0.1046029 2.3768549
-0.200487 0.10473203 2.3807378
-0.18844225 0.10419833 2.3678272
-0.13503778 0.090465866 2.0564144
-0.12583591 0.090793803 2.0630648
-0.11821072 0.092283942 2.0975022
-0.12276784 0.10439985 2.3734632
-0.11207696 0.10472646 2.3797433
-0.1009142 0.10462214 2.3778815
-0.089636818 0.10435872 2.3723297
0.10871699 0.094814397 2.1541777
0.1207467 0.096409641 2.1914086
1.3499132 0.11807269 2.4404247
-1.2959237 0.11968195 2.2316189
-1.2899991 0.12010283 2.2416561
-1.2920122 0.12138268 2.2662616
-1.2875375 0.12200165 2.2801108
-0.58535123 0.088839725 1.7925805
-0.5832032 0.089835532 1.814177
-0.58293802 0.091095127 1.8423296
-0.22675268 0.094490245 1.9428773
-0.21911113 0.095098436 1.9551685
-0.20011312 0.1095545 2.2518768
-0.18374245 0.11232638 2.3091671
-0.17195855 0.11156919 2.2944446
-0.1345869 0.099747472 2.0500648
-0.12479258 0.09949594 2.0455213
-0.12304029 0.11569135 2.378221
-0.11195725 0.11566734 2.3782368
-0.1008622 0.11561366 2.3761477
-0.089678504 0.11543568 2.3729253
0.10995384 0.10601979 2.1795399
0.58456779 0.11373711 2.3231208
0.63203108 0.11451872 2.3325343
0.64373726 0.11464929 2.3338156
0.65665275 0.11498475 2.3391862
1.3387016 0.12943457 2.4197168
-1.2725692 0.12861978 2.1913371
-1.3000085 0.13252552 2.2589071
-1.2956749 0.13325252 2.2724071
-1.2810791 0.13294818 2.2684779
-0.59777343 0.10085226 1.8590832
-0.31749293 0.1037228 1.945194
-0.22611532 0.099291131 1.8632431
-0.22184846 0.1013028 1.9009483
-0.21803296 0.10369129 1.9456629
-0.19685557 0.11807256 2.2155089
-0.12263258 0.12633333 2.3711627
-0.11183727 0.12658903 2.3751068
-0.10067458 0.12644206 2.3728571
-0.089352049 0.12593146 2.3637087
0.084555261 0.10943186 2.0537632
0.12912931 0.12489673 2.3437686
0.25645083 0.12328134 2.313535
0.51819068 0.11475713 2.1406074
0.52207029 0.11342698 2.1147075
0.58938253 0.11699509 2.1749105
0.59208363 0.11553183 2.1463203
0.60189301 0.11547907 2.1438823
0.62040842 0.1170686 2.1719127
-1.3197874 0.1462207 2.2932711
-1.3049444 0.14590642 2.2885244
-0.59406197 0.10152918 1.7109385
-0.63431019 0.11633664 1.9724033
-0.29802129 0.11571546 1.9967859
-0.28956473 0.11604858 2.0028279
-0.21412793 0.10627341 1.8347692
-0.17808612 0.12248692 2.1147807
-0.16858271 0.13036878 2.2501376
-0.15533367 0.12797759 2.2096112
-0.12125412 0.13581896 2.3439353
-0.1114981 0.137234 2.3688636
-0.10049306 0.13715453 2.3679988
-0.087735482 0.13455142 2.3222551
0.20432605 0.12830724 2.2148807
0.2108582 0.12604709 2.1760833
0.27184489 0.13111535 2.2627499
0.28328282 0.13156913 2.2705293
0.50985348 0.13292122 2.2855008
0.51870227 0.13247715 2.2767367
0.5290485 0.13242275 2.274673
0.57903397 0.1249003 2.136431
0.59047723 0.1252075 2.1401999
0.59938091 0.12497269 2.1346338
0.60792696 0.12473765 2.1279135
0.67458552 0.12602222 2.1379919
1.3502357 0.15530141 2.4399879
-0.88006049 0.14647928 2.2565806
-0.61452079 0.11189546 1.7431955
-0.59410226 0.1096191 1.7105563
-0.59699899 0.11170822 1.7450392
-0.067138091 0.12677506 2.0262313
-0.057360411 0.1259221 2.0119226
-0.047918919 0.12569502 2.0085399
0.20355508 0.13809763 2.2066481
0.2914331 0.14092645 2.2516296
0.31827825 0.1436289 2.2942379
0.32537147 0.14207841 2.2691193
0.4695729 0.13799244 2.1979833
0.48767197 0.14028347 2.2334216
0.5048027 0.14218397 2.2625396
0.51721895 0.14265163 2.2698979
0.52639234 0.14228933 2.2629189
0.68910545 0.13496399 2.1155469
-1.3700606 0.17453215 2.3591037
-1.4314946 0.18393898 2.4871254
-0.89314497 0.15770555 2.2575502
-0.89151835 0.15933904 2.2852099
-0.60428172 0.11820004 1.7136505
-0.60044962 0.11902669 1.7284331
0.036936492 0.13830733 2.0568655
0.30739442 0.15415704 2.2924759
0.31631976 0.15333728 2.2799242
0.32576129 0.15280809 2.2716954
0.33634594 0.15278874 2.271951
0.47632468 0.15038529 2.2292163
0.4875153 0.1506014 2.2323253
0.51507533 0.15266481 2.2604744
0.52591354 0.15270519 2.2608321
0.72144711 0.14545083 2.1141953
0.8031956 0.1597537 2.318342
0.82269132 0.16138341 2.3393011
-1.4525694 0.19773981 2.5010769
-1.4106343 0.19375893 2.4507046
-1.4423246 0.19985035 2.5290334
-0.90419322 0.16865897 2.2529452
-0.89427722 0.16883394 2.2595944
-0.90432113 0.17281331 2.3171899
-0.71008098 0.14454833 1.9547107
-0.62364221 0.12866831 1.7421452
-0.60526663 0.12653095 1.7160448
0.036449723 0.14610989 2.0325384
0.21268442 0.1656573 2.3049667
0.21772645 0.16149887 2.2471001
0.31830505 0.16496307 2.2940354
0.33229256 0.16657597 2.3169529
0.34242591 0.16631299 2.3127878
0.35199517 0.16579585 2.3050191
0.52115589 0.16510805 2.2867572
0.76637781 0.16297075 2.2115619
0.79125166 0.16595349 2.2493811
0.80845809 0.16734076 2.2644331
0.84195751 0.1719299 2.3236244
-1.4739622 0.21364504 2.5378768
-1.4646089 0.21408103 2.5444469
-1.4435513 0.21290843 2.5309179
-0.89561796 0.17779948 2.2307694
-0.95073164 0.19583176 2.4698451
-0.61686581 0.13544507 1.7225994
0.34917599 0.17504808 2.2862427
0.36255732 0.17642552 2.3035235
0.52421367 0.17678316 2.2996969
0.76688367 0.17353942 2.2122333
0.80855322 0.17810094 2.2638903
0.82451999 0.17926924 2.2748902
-1.4638984 0.22500925 2.520514
-1.4673946 0.22751909 2.5491681
-1.4492273 0.22670478 2.5407588
-0.9037202 0.18807943 2.2192495
-0.89871275 0.18926483 2.2375917
-1.0615004 0.22902112 2.7178841
-1.0516598 0.22970064 2.7310545
-0.15252931 0.14696458 1.8110422
0.2114159 0.17705242 2.181812
0.26963899 0.175382 2.160445
0.27726111 0.17390811 2.1418471
0.4543601 0.18528341 2.2764912
0.46481144 0.18519941 2.2751446
0.49870935 0.18597881 2.282604
0.50405586 0.18409796 2.258122
0.51769298 0.18518578 2.2709324
0.49678352 0.17418286 2.1346126
-1.506974 0.24485342 2.5947113
-1.4652894 0.24012293 2.5453928
-1.4439987 0.23871802 2.531482
-0.90994775 0.19781472 2.2031159
-1.0709598 0.24127536 2.7028182
-1.0585192 0.2413823 2.7091823
-1.0459548 0.24157296 2.7153122
-0.62966573 0.15301554 1.731468
-0.62408477 0.15364179 1.7415003
-0.69581753 0.17363438 1.9707149
-0.25447923 0.16141817 1.8806351
-0.24905802 0.16356577 1.9061477
0.24755318 0.18391365 2.1433244
0.2675482 0.18403454 2.143893
0.27100125 0.17965467 2.0932131
0.45579672 0.17600134 2.0417309
0.46445081 0.17565686 2.0371716
0.49613184 0.18392134 2.1315839
0.71846104 0.18483852 2.1029124
0.85879678 0.20664726 2.3333476
1.3095983 0.22281878 2.3645113
-1.4474056 0.24779627 2.4920871
-1.4647646 0.25526527 2.5676844
-0.91277599 0.20677142 2.1789522
-0.91815281 0.21042535 2.2219503
-1.0800723 0.25347188 2.6870503
-1.0644653 0.25282046 2.6852772
-1.049125 0.25223851 2.6841285
-1.0332206 0.25148335 2.6811099
-0.25883341 0.17306823 1.9129184
0.39755544 0.18063915 1.9916352
0.43567261 0.18113425 1.9936649
0.45575899 0.18168813 1.9985064
0.45876089 0.1792025 1.9704837
0.75031757 0.20348197 2.1952314
0.83927757 0.21288885 2.2792723
0.86524838 0.21661507 2.3159633
0.88771462 0.21945405 2.3420963
1.0850283 0.22787346 2.3636692
1.1310577 0.23017114 2.3710041
1.1483986 0.23132977 2.3773582
1.1587533 0.23099118 2.3690534
1.1746569 0.23184976 2.3721824
-1.4562062 0.26209936 2.5072691
-1.358705 0.25106046 2.4039018
-1.2131782 0.2261961 2.167129
-1.0863715 0.26170173 2.6278234
-1.0787973 0.26295683 2.6456802
-1.0692499 0.26375532 2.658896
-1.0559583 0.26361647 2.6625879
-1.0350479 0.26157108 2.6468937
-1.0178975 0.2605013 2.6401336
-0.32807693 0.17167599 1.8025137
-0.31397855 0.16862014 1.7707045
0.85349649 0.22467513 2.2836618
0.87613171 0.22772305 2.3104765
0.93472248 0.23403098 2.3621089
0.94447708 0.23363218 2.3535759
0.9513461 0.23253752 2.3379071
0.97768521 0.2361718 2.3697317
-1.0942364 0.27329883 2.6096132
-1.0893198 0.27525729 2.6336443
-1.0803707 0.27623117 2.6482236
-1.0687157 0.27652824 2.6562512
-1.0565214 0.27666825 2.6626904
-1.0389273 0.27540362 2.655503
-1.0220761 0.2742835 2.6496656
-0.65492421 0.18257686 1.7726933
-0.64108682 0.18104182 1.7608342
-0.38370463 0.1867682 1.8666885
-0.38393864 0.19122191 1.9117407
-0.33792073 0.18090191 1.8099226
-0.32289866 0.17726251 1.7738968
-0.31577545 0.17785247 1.7806875
0.85330993 0.23553237 2.282042
0.89739341 0.24459554 2.3655872
0.9649325 0.24739243 2.3701968
-1.1123486 0.28737268 2.6157367
-1.1073521 0.28939363 2.6394877
-1.0949903 0.28951451 2.6459484
-1.0791489 0.28870738 2.6438272
-1.0688158 0.28937218 2.6550953
-1.0597457 0.29039922 2.6697168
-1.0436891 0.28948915 2.6663566
-1.0156099 0.28526711 2.6315179
-0.65181267 0.19012885 1.7634062
-0.64480561 0.19058691 1.7701815
-0.40152422 0.20004381 1.909335
-0.38963047 0.19849548 1.8952044
-0.37767291 0.19686767 1.8802451
-0.36857632 0.19668369 1.8790696
-0.36066508 0.19713297 1.883885
-0.336153 0.18833107 1.8002136
-0.32360238 0.18591338 1.7775403
0.4637377 0.20907392 1.9908426
0.71738207 0.22768784 2.1289227
0.87153065 0.2517772 2.3296258
0.89273804 0.2546711 2.3521578
-1.3281004 0.27400997 2.2868512
-1.2571495 0.26160336 2.1835067
-1.2152882 0.25971022 2.1700265
-1.1693792 0.25933173 2.1744318
-1.1196631 0.30213967 2.6312389
-1.1139899 0.30411252 2.6538963
-1.0961199 0.3027387 2.6472709
-1.0603455 0.29632869 2.5963833
-1.0676253 0.30194134 2.6507344
-1.0608289 0.30366093 2.6709464
-1.0445434 0.30264774 2.6671326
-0.73048466 0.21696503 1.9190977
-0.71500385 0.21511953 1.9056567
-0.40158138 0.2089349 1.9092782
-0.38646895 0.20560242 1.879516
-0.37371689 0.20348556 1.8602564
-0.37106109 0.2068287 1.8914533
-0.36269999 0.20707108 1.8942447
-0.33046308 0.19338252 1.7695051
-0.33046097 0.19829923 1.8149306
0.23314473 0.19642331 1.8002405
0.72430408 0.24011271 2.1483512
0.74425501 0.24328972 2.1739523
0.87443107 0.26389107 2.3363585
0.89768046 0.2674107 2.3639383
-1.2497247 0.26873666 2.1519556
-0.73996264 0.22626957 1.9153792
-0.72958076 0.2259485 1.915653
-0.72106516 0.22613995 1.9207406
-0.38712776 0.21972442 1.9266471
-0.38511434 0.22375941 1.9627318
-0.34574923 0.20575607 1.8053472
-0.33650941 0.20526005 1.8015832
-0.18428485 0.22404806 1.971015
0.23257545 0.20426822 1.795814
0.46301514 0.22731087 1.9865429
0.72969687 0.2521587 2.1634331
0.74557072 0.25405782 2.1768713
0.83176959 0.26508647 2.2536774
1.3579582 0.30589524 2.4492252
-1.2430532 0.27822742 2.1405268
-0.74228591 0.23627675 1.9203176
-0.73068804 0.23551467 1.9176543
-0.71857303 0.23454385 1.9132023
-0.67938149 0.224657 1.83531
-0.68224066 0.2285347 1.8702297
-0.69592476 0.23938222 1.9651371
-0.386415 0.22311532 1.8787419
-0.18557023 0.23481064 1.9843765
0.235958 0.21574916 1.8218441
0.71417457 0.26057908 2.1494818
0.71718085 0.25798666 2.1253581
0.79394203 0.27773499 2.2819247
0.82139593 0.27970529 2.291101
0.83113724 0.27933559 2.2841899
0.88578928 0.29379675 2.3988426
1.3626574 0.31941196 2.4573402
-1.2482085 0.29030412 2.1495948
-0.68191206 0.23430356 1.8409997
-0.68362421 0.23800613 1.8729196
-0.41074958 0.24105483 1.9515508
-0.36979115 0.22706676 1.8398407
-0.35687298 0.22432014 1.8182578
-0.3439101 0.22140618 1.7953007
-0.21845502 0.23015381 1.8709987
-0.20632756 0.2263682 1.8402096
-0.1905835 0.22800112 1.8539201
-0.19355001 0.24253151 1.9719925
-0.18688165 0.2457605 1.9986093
0.73545647 0.27883279 2.2124603
0.75167167 0.280965 2.2264853
0.76301295 0.28123942 2.2256894
0.80655712 0.29325923 2.3170419
0.83339655 0.29888809 2.3582022
0.83019781 0.29381114 2.3142917
0.86398047 0.30170622 2.3729773
0.88415402 0.30478069 2.3930027
-1.2797872 0.30886012 2.2040956
-0.41525239 0.25288361 1.9724177
-0.36596838 0.23318492 1.8203615
-0.35419133 0.2310755 1.8041532
-0.34634706 0.23142642 1.8075944
0.47420648 0.2613433 2.0331481
0.74567658 0.29341668 2.242116
0.75622344 0.29337633 2.2388022
0.79306728 0.30336645 2.311929
0.81702018 0.30824462 2.3458676
0.83679819 0.31148344 2.3666568
0.852449 0.31304318 2.375062
0.86806864 0.31462613 2.3830161
-0.68297839 0.25574189 1.8689301
-0.66978085 0.25410306 1.860178
-0.42598253 0.26300061 1.9783276
-0.36276862 0.26405817 1.9907122
0.73411185 0.30370286 2.2412326
0.7492277 0.30550325 2.2515531
0.78383207 0.3151148 2.3193293
0.80232 0.31811416 2.3376789
-1.264513 0.32732859 2.1781342
-0.66942209 0.26284394 1.8579655
-0.66826242 0.26595181 1.8826363
-0.45633674 0.27959111 2.0289247
-0.43589056 0.27269694 1.9799871
-0.39683598 0.25364536 1.8426145
-0.36524126 0.27516973 2.0037777
0.28093779 0.25197983 1.8368833
0.28598061 0.24893211 1.8141896
0.29538563 0.24973203 1.8199549
0.73413253 0.31441051 2.2400658
0.74635053 0.31505302 2.2417431
1.3487228 0.36571759 2.4307301
-1.1697181 0.31582388 2.0321326
-0.66833496 0.27498683 1.8817836
-0.6728763 0.28454876 1.9527731
-0.66314828 0.28439716 1.9544117
-0.3964656 0.26200953 1.8402733
-0.3824957 0.29049411 2.0451274
-0.36463204 0.28406212 2.0002134
-0.35457 0.28345603 1.9966902
-0.34619457 0.28420639 2.002218
0.21554349 0.25398967 1.7923938
0.23403329 0.25597742 1.805985
0.27784675 0.25763249 1.8162242
0.28568935 0.25713739 1.8122871
0.29403618 0.25705546 1.8112062
0.47568601 0.29080087 2.0374112
0.88774264 0.36159512 2.4686906
0.90818328 0.36501968 2.4883845
-1.1772325 0.32545149 2.028291
-1.1712786 0.32664129 2.0349429
-0.67666715 0.29552194 1.9625524
-0.66288853 0.29359308 1.9524988
-0.65209597 0.29292014 1.9506452
-0.63923264 0.29128233 1.9423443
-0.63149703 0.29196554 1.9494479
-0.59624451 0.29283765 1.9644868
-0.58432937 0.29153487 1.9576106
-0.57561123 0.29177579 1.9615148
-0.57135522 0.2943846 1.9808041
-0.56296241 0.29487601 1.9858632
-0.5572685 0.29678726 2.0008647
-0.33738396 0.28603762 1.951039
-0.3062005 0.29095554 1.9861822
-0.24466068 0.29470631 2.0137119
0.22633342 0.26518169 1.8116246
0.2357273 0.26626778 1.8187424
0.27975532 0.26794675 1.828678
0.28755191 0.2672849 1.823629
0.72366542 0.3358086 2.2408292
0.74743158 0.3418245 2.2779925
0.77407628 0.34893045 2.3223042
0.90667564 0.37638974 2.4824612
-1.1759447 0.33535478 2.0263574
-0.57459939 0.30542171 1.9909302
-0.3313733 0.28228098 1.8648663
-0.32041353 0.28027484 1.8523545
-0.25787288 0.29768246 1.9709733
-1.1593242 0.34076396 1.9979798
-0.43258023 0.30737272 1.9625567
-0.32832021 0.28828681 1.8473878
-0.31913695 0.28780708 1.8446474
-0.25350547 0.30164856 1.9371872
-0.23855622 0.29434097 1.890561
0.67733502 0.33921918 2.1288953
0.74828041 0.36922273 2.3142114
-1.1706179 0.35436833 2.0178325
-0.43517241 0.31841883 1.9734474
-0.35553533 0.29807627 1.8522686
-0.34813708 0.29915476 1.8594589
-0.31171918 0.29750529 1.8515179
-0.24124685 0.29571271 1.8435075
-0.23323499 0.29637882 1.8479787
-0.22352965 0.31937233 1.9922514
1.2977127 0.41154641 2.3376
-0.47774383 0.33164692 1.991908
-0.46879604 0.33189493 1.9947907
-0.45947501 0.33187824 1.9960186
-0.45501363 0.33550221 2.0187073
-0.43825078 0.32999334 1.9868166
-0.3528696 0.3044354 1.837954
-0.3486369 0.30828568 1.86172
-0.30937216 0.30384147 1.8372787
-0.28117263 0.33113384 2.0049593
-0.26689386 0.32507721 1.9687722
-0.23062888 0.30158284 1.8269223
-0.22918487 0.33697674 2.0422621
-0.22027285 0.33786213 2.0478752
1.2978867 0.42348614 2.3376007
-0.52198982 0.3519209 2.0505154
-0.43769142 0.33884165 1.9833423
-0.42312717 0.33471718 1.9600344
-0.35550353 0.30788282 1.8062838
-0.32172161 0.30779546 1.8085188
-0.31424701 0.3087759 1.8146996
-0.33097807 0.34371778 2.0212355
-0.27422011 0.33200851 1.954788
-0.2586734 0.32390773 1.9075823
-0.24019332 0.3486388 2.0545106
-0.22051112 0.34780273 2.0497453
-0.21050084 0.34699547 2.0451925
0.30796194 0.34176031 2.0103438
0.316129 0.34053349 2.002485
0.37279654 0.34986016 2.0543869
0.37882066 0.34667051 2.034744
0.42376128 0.33703601 1.9729532
1.3320535 0.44690272 2.3991218
-1.1854801 0.3900423 2.044816
-0.53483093 0.35728779 2.0218034
-0.52657294 0.35814226 2.0283048
-0.45213187 0.35218829 2.004216
-0.43654627 0.34725556 1.9774381
-0.42036885 0.34163448 1.9462869
-0.35804248 0.31120473 1.7757404
-0.35031709 0.31173617 1.7793839
-0.33799547 0.30804017 1.7592074
-0.31238711 0.32409072 1.8540598
-0.29242122 0.35212994 2.0168417
-0.26711819 0.33224574 1.9035223
-0.25430334 0.35130954 2.0138688
-0.2405315 0.35874471 2.0568972
-0.22076246 0.35773236 2.051672
-0.21010378 0.35582912 2.0409811
-0.18202183 0.32283223 1.8519193
0.33444229 0.40603057 2.3250904
0.34433052 0.40502214 2.3186228
0.35541365 0.40527329 2.3197827
0.36461169 0.4034833 2.3087006
-1.2228857 0.41306362 2.1100063
-1.2251065 0.41747355 2.1307359
-1.257706 0.43238807 2.2055643
-1.1998544 0.41996044 2.1407573
-1.1944156 0.42187655 2.1502831
-1.174052 0.42241868 2.1536441
-1.1980798 0.43513283 2.2193258
-1.1521342 0.42239875 2.155596
-1.1295789 0.41807437 2.1351869
-0.54192501 0.35891595 1.9735303
-0.43329239 0.35385543 1.9617063
-0.35318041 0.30799106 1.7102677
-0.35135821 0.31352979 1.7417037
-0.33987245 0.31799918 1.7681625
-0.32594714 0.31262413 1.7388417
-0.33522809 0.367228 2.0459387
-0.29028088 0.33720687 1.8797513
-0.25207379 0.35750461 1.995579
-0.24686219 0.36354336 2.0297205
-0.22072154 0.36720851 2.0508816
-0.20713834 0.36017245 2.0118248
-0.18184896 0.33114257 1.8498349
0.302542 0.41771629 2.3306589
0.3168183 0.42232615 2.3558018
0.31988782 0.41210645 2.2985599
0.88274157 0.45998695 2.4770534
1.3086987 0.46305746 2.3569431
-1.2368948 0.48841316 2.4406238
-1.2411435 0.4949972 2.4770477
-1.2323961 0.49645349 2.4882936
-0.42436323 0.35556734 1.9202466
-0.40820405 0.34942695 1.8882957
-0.35166538 0.3077336 1.6637127
-0.34075066 0.32714975 1.7720939
-0.34356377 0.37548441 2.0376666
-0.33866251 0.38062182 2.0663998
-0.32255656 0.37315488 2.026289
-0.24166147 0.35163811 1.9125404
-0.25342837 0.39807063 2.1659806
-0.24579822 0.40210345 2.1882734
-0.20891574 0.35661009 1.940676
0.30624646 0.4339107 2.3589833
0.32004288 0.42300376 2.2988365
0.53322464 0.43984053 2.3730721
0.54323167 0.43886247 2.366529
0.55389631 0.43857023 2.3632808
0.56303573 0.43704122 2.3532989
1.1930269 0.46740818 2.3298187
1.1966394 0.46418089 2.3113029
1.2044855 0.46269381 2.3015516
1.2196392 0.46401605 2.3061712
1.2624422 0.47126344 2.3392627
1.2819544 0.47409067 2.3523533
1.2473216 0.45282587 2.2463732
-1.254196 0.49785656 2.4197791
-1.2444377 0.5038026 2.454298
-1.2381124 0.50630188 2.4695394
-1.2280161 0.50730431 2.4779994
-1.2319801 0.51413614 2.5153215
-1.2200884 0.51448989 2.5210872
-1.2162335 0.51821822 2.5438449
-1.1991103 0.51629442 2.5392973
-1.1805358 0.51373237 2.5315645
-1.1622547 0.51127827 2.524226
-1.1474013 0.51029074 2.5240936
-1.130222 0.50822294 2.5190103
-1.1111356 0.50523973 2.5092521
-1.0942333 0.50314552 2.504194
-1.0761564 0.50054175 2.4961293
-1.0502049 0.49408671 2.4691846
-1.0217655 0.48633641 2.435452
-1.013273 0.48800927 2.4488459
-0.7150867 0.41303444 2.1251512
-0.58582097 0.38811052 2.0200546
-0.43795907 0.36844078 1.9384933
-0.42243275 0.3629095 1.9106959
-0.41753635 0.36652458 1.9306611
-0.34718341 0.33364376 1.761102
-0.34394419 0.33851883 1.7878203
-0.31395161 0.3333478 1.762553
-0.34023464 0.39206621 2.0750265
-0.32907054 0.39033678 2.0667448
-0.23571965 0.3651807 1.9368874
-0.22452705 0.36171469 1.9188875
-0.21399672 0.35896224 1.9046661
-0.206448 0.36128399 1.917248
0.30512437 0.44319537 2.3494871
0.31012923 0.434903 2.3049209
0.54253495 0.44946662 2.3624458
0.55292165 0.44889179 2.3577342
0.56277084 0.44783083 2.3507931
0.71407354 0.43893003 2.2698236
0.74475539 0.45095068 2.3288877
1.0468631 0.47182336 2.3367097
1.0418249 0.46439785 2.2952375
1.0771576 0.47493187 2.3424957
1.0777808 0.47008836 2.3141592
1.0854012 0.46836397 2.3012366
1.1292199 0.44912845 2.180208
1.1373086 0.44792461 2.1724496
1.2057025 0.45289481 2.1915514
1.2227772 0.45511404 2.2022176
-1.2428163 0.48196098 2.2792621
-1.2713271 0.50719815 2.4011989
-1.2679363 0.51073658 2.4195957
-1.2637383 0.51398504 2.4371245
-1.2573744 0.51649952 2.451277
-1.2428548 0.5155673 2.449883
-1.2365553 0.51812178 2.4651463
-1.2209058 0.51683241 2.4621229
-1.2175854 0.52064407 2.4843142
-1.2081288 0.52195019 2.4944985
-1.2013391 0.52451617 2.5108144
-1.1941272 0.52680802 2.5265958
-1.1781985 0.52542216 2.5244143
-1.158741 0.52232337 2.5142884
-1.1471843 0.52274573 2.5214994
-1.1326762 0.52190179 2.5220959
-1.1161315 0.52004009 2.5181611
-1.0988245 0.51769 2.5122313
-1.0759534 0.51276028 2.4932127
-1.0513953 0.50685728 2.4696786
-1.0297233 0.50218314 2.4520249
-1.0141172 0.50043279 2.4484169
-0.93832791 0.48611397 2.3972294
-0.93948656 0.49288794 2.4352555
-0.9377389 0.49824804 2.4663279
-0.92277575 0.49663419 2.4628317
-0.91579908 0.4993327 2.4806485
-0.90079242 0.49766633 2.4767904
-0.88722634 0.49684349 2.4765372
-0.5866704 0.39826122 2.0213783
-0.43259498 0.37292039 1.9139143
-0.42709011 0.37598425 1.9305971
-0.34158507 0.40335757 2.0826917
-0.33527413 0.40752065 2.1046846
-0.24012078 0.36714208 1.8994887
-0.23205148 0.36833474 1.906056
-0.22398657 0.36971852 1.913675
-0.21459541 0.36888438 1.9093858
-0.21518859 0.38591567 1.9978943
-0.20615125 0.38642418 2.0008173
0.21973152 0.35233504 1.8229557
0.53867841 0.45730501 2.344286
0.54372168 0.45226341 2.3171384
0.54443169 0.44401166 2.2731364
0.70548362 0.44434744 2.2407076
0.73557335 0.45637926 2.2983105
0.75626403 0.462385 2.3249862
0.77268332 0.45886081 2.3007872
0.78710479 0.46086058 2.3071043
0.7948513 0.45887548 2.2937741
0.80621016 0.45907512 2.2909253
0.82910997 0.46575251 2.3202679
0.83813596 0.46456242 2.31037
0.86402071 0.47258288 2.3460643
0.8602196 0.46441022 2.3013716
0.88898742 0.46778294 2.3095536
0.90750241 0.47153243 2.3236494
0.91847444 0.4713183 2.3181024
0.92680019 0.46976814 2.3059242
0.99307555 0.44869515 2.1578238
1.0111196 0.45193025 2.1691909
1.018939 0.45060471 2.1587212
1.0858614 0.45134842 2.1421897
1.0939732 0.45027995 2.1343985
1.1571479 0.4495891 2.1230514
1.1774042 0.45322102 2.1400249
1.1834651 0.45136634 2.1315236
-1.2308129 0.46712366 2.1604276
-1.2210336 0.48954692 2.2606325
-1.2369727 0.51032054 2.3598599
-1.2618997 0.52564251 2.4328423
-1.2610885 0.5304606 2.4573715
-1.2538868 0.53266948 2.4703224
-1.1944662 0.52853769 2.4645228
-1.1872984 0.53084046 2.4797051
-1.1855417 0.53571731 2.5064778
-1.1737043 0.53599393 2.5125682
-1.1545162 0.53291959 2.5029225
-1.1388165 0.53144199 2.5007327
-1.127611 0.53208876 2.5084429
-1.1143323 0.53171229 2.5117319
-1.0892626 0.52563548 2.4880302
-1.0753428 0.52481651 2.4893801
-1.0490175 0.51793784 2.4615979
-1.0315647 0.51528579 2.4540415
-0.86929274 0.43933818 2.0966456
-0.95310676 0.50570858 2.43255
-0.93522888 0.5025171 2.4217982
-0.9233253 0.50245094 2.4259982
-0.90825826 0.5006395 2.4216738
-0.89418817 0.49933726 2.419785
-0.89741707 0.50778884 2.4650631
-0.88288635 0.50628358 2.462065
-0.59119105 0.41103989 2.0354977
-0.42324868 0.3815937 1.9123533
-0.40650004 0.37448183 1.8777255
-0.35572284 0.47031814 2.3724058
-0.22371732 0.37820733 1.9106621
-0.21317016 0.39149281 1.9785706
-0.20481971 0.39317182 1.9873602
0.20748152 0.35447329 1.790418
0.22069211 0.36243048 1.8302137
0.26962927 0.42637318 2.1526482
0.28554517 0.43520832 2.1969888
0.29314446 0.43134797 2.176893
0.32082772 0.45630115 2.3021812
0.42797363 0.45604581 2.2930682
0.43553001 0.45267457 2.2752588
0.46845534 0.45363995 2.276511
0.51807874 0.4597564 2.3018632
0.52570122 0.44789371 2.2391825
0.53007042 0.44273892 2.2117853
0.6820119 0.44667733 2.2005141
0.69158125 0.44615147 2.1947045
0.72500736 0.46073022 2.2633853
0.74315953 0.4652676 2.2825348
0.75599015 0.46643335 2.2850294
0.76761752 0.46686125 2.283531
0.75618082 0.44709501 2.1800992
0.82829136 0.45200631 2.1812639
0.83412391 0.44947651 2.1645975
0.84405172 0.44915688 2.1589506
1.1829987 0.46204025 2.1309271
-1.2101138 0.46180725 2.0915341
-1.2021106 0.46285239 2.0939775
-1.2297857 0.47770515 2.1592488
-1.1216296 0.45171824 2.0380116
-1.0876542 0.46373481 2.0961342
-1.0833608 0.46642649 2.1102073
-1.1024126 0.53235769 2.4500659
-1.0946242 0.53459948 2.4648974
-0.87080878 0.44518402 2.0694456
-0.8702867 0.45026031 2.0970237
-0.95804924 0.52033108 2.4426336
-0.94073099 0.51732492 2.4335296
-0.91400635 0.50904149 2.3990369
-0.8880831 0.50099611 2.3655224
-0.87081015 0.49768391 2.3541002
-0.80406892 0.48501325 2.3097103
-0.79713237 0.48756564 2.3257661
-0.61980891 0.40775055 1.959031
-0.60454947 0.40381375 1.9427246
-0.58346403 0.40852082 1.9728317
-0.57674187 0.41042474 1.9841053
-0.42145056 0.38086247 1.8625357
-0.40489203 0.37359858 1.8283077
-0.39614943 0.37349734 1.8287628
-0.33740467 0.33253503 1.6300381
-0.35683459 0.44172341 2.1738522
-0.21166569 0.39787245 1.9639648
0.2182899 0.36689952 1.8096441
0.31422183 0.4574815 2.2542493
0.33067611 0.46577558 2.2947423
0.35143599 0.46497682 2.2891278
0.36074021 0.46310079 2.2793725
0.373548 0.4658508 2.2919569
0.38293782 0.46422386 2.2832866
0.3944515 0.46525046 2.287313
0.40835088 0.46888241 2.3044219
0.41145015 0.46030623 2.2611158
0.41899788 0.45693359 2.2437487
0.42940998 0.45690984 2.2424111
0.46180168 0.45773891 2.2431488
0.50629336 0.45056176 2.2008722
-1.1577828 0.45196676 2.0018854
-1.1893758 0.46846765 2.0725086
-1.1725795 0.46592122 2.059459
-1.1047289 0.4551526 2.0074768
-1.0681311 0.46586391 2.0578125
-1.0648867 0.4690581 2.0735357
-1.0430151 0.46397647 2.0530529
-1.0197684 0.45818856 2.0297067
-0.86861807 0.44901446 2.0340996
-0.86370355 0.45173648 2.050343
-0.8929407 0.47256279 2.1492908
-0.91622353 0.51546967 2.3676026
-0.81040156 0.50007749 2.3257437
-0.79968256 0.50040591 2.330828
-0.61926228 0.41055474 1.9238734
-0.60742974 0.40879634 1.9182222
-0.60475546 0.41324008 1.9416267
-0.58148766 0.40991145 1.9309862
-0.57342821 0.41072407 1.9371605
-0.41765419 0.38607976 1.8445116
-0.40712768 0.38438246 1.8374385
-0.3414031 0.34418213 1.6483409
-0.33810264 0.34872475 1.6711278
-0.3317045 0.39746568 1.9097918
1.1887721 0.48611841 2.1418781
-1.1099575 0.44305804 1.9201484
-1.1439158 0.46476528 2.0098794
-1.0452671 0.43236351 1.8669577
-1.018857 0.42527005 1.8354069
-1.0426424 0.44746161 1.9299814
-1.0345938 0.44823748 1.9335279
-1.0275724 0.44945183 1.9392608
-1.0212178 0.4509905 1.9467585
-1.0233967 0.46549383 2.0135036
-1.0096059 0.46385977 2.0084245
-0.9898864 0.45942426 1.9914854
-0.96693337 0.45336747 1.9678266
-0.88956362 0.4303171 1.8763353
-0.83484954 0.40819094 1.7827139
-0.84170187 0.4159762 1.8198959
-0.87131548 0.44507772 1.9582886
-0.86131996 0.44498301 1.9614911
-0.86050528 0.44964859 1.9860097
-0.86327392 0.45628238 2.0195544
-0.8576979 0.45867744 2.0340478
-0.75000226 0.44261885 1.9934777
-0.74643195 0.4462125 2.0136461
-0.77577609 0.47001991 2.1245012
-0.68855375 0.44055545 2.0049996
-0.67419189 0.4375194 1.9941646
-0.60917181 0.4129464 1.890736
-0.40900004 0.39480314 1.8446531
-0.34446517 0.36335853 1.7017542
-0.29289207 0.39032954 1.8355459
-0.28268939 0.38811463 1.8255848
-0.26914909 0.43519101 2.0500212
-0.25695613 0.43077004 2.029743
-0.18535313 0.38095987 1.7967423
-1.1093415 0.45254999 1.9200912
-1.0465624 0.43842301 1.8544073
-1.06284 0.44930315 1.8987907
-1.0423037 0.44460732 1.8780341
-1.0220464 0.44001201 1.8577256
-1.0279659 0.44667688 1.885374
-1.031721 0.45249024 1.9097024
-1.0246339 0.45368519 1.9146721
-1.018119 0.45509607 1.9211251
-1.0109854 0.45630041 1.926843
-0.96249467 0.44299579 1.8727833
-1.0056183 0.46744785 1.977813
-1.0038766 0.47130978 1.9961151
-0.98449862 0.46694031 1.9796175
-0.95356792 0.45693061 1.9394271
-0.88742119 0.4341189 1.847739
-0.88507128 0.43754381 1.8653419
-0.83394563 0.41666633 1.7792149
-0.84216207 0.42536533 1.8192952
-0.82787025 0.4227581 1.8113235
-0.8218506 0.4242976 1.821375
-0.85039133 0.44394326 1.9092559
-0.85808122 0.4529908 1.9520715
-0.84443945 0.45095474 1.9468982
-0.81946748 0.44268143 1.9149284
-0.81117493 0.44329914 1.9215702
-0.79927874 0.44730461 1.9465925
-0.7199415 0.42864296 1.8835628
-0.73896343 0.44565439 1.9619783
-0.73598903 0.44967207 1.9832962
-0.683644 0.44705856 1.9886036
-0.68005598 0.45103189 2.009521
-0.64130431 0.45100397 2.0214453
-0.64157796 0.46524978 2.0908263
-0.4210977 0.40683326 1.8574063
-0.40804309 0.40251708 1.8390452
-0.39662993 0.39972311 1.8275558
-0.35623696 0.42324328 1.9426287
-0.35020447 0.42697099 1.9604987
-0.2858789 0.38941798 1.7909037
-0.28436995 0.39901096 1.8358216
-0.29160288 0.46536255 2.1435986
-0.25810677 0.44221225 2.0378573
-0.17213283 0.44127789 2.0370011
-1.0340691 0.43094271 1.7907491
-1.0558902 0.44389892 1.8422633
-1.0028931 0.43309662 1.7923447
-1.0061666 0.4384594 1.813351
-1.0112177 0.44470277 1.8383753
-1.0324882 0.45830044 1.8938373
-1.0201203 0.45708516 1.8884147
-1.0140299 0.46302363 1.9131823
-0.98704392 0.45503858 1.8808129
-0.94277972 0.44322938 1.8338084
-0.98532248 0.46786365 1.9371293
-0.8781203 0.43429524 1.8057077
-0.88084966 0.44017079 1.8328809
-0.8783645 0.44356224 1.8497
-0.84975272 0.43374878 1.8114729
-0.82191855 0.42405647 1.7741375
-0.81294739 0.4240483 1.7769266
-0.81712902 0.43091294 1.8091401
-0.86258477 0.45997027 1.9347461
-0.86838925 0.46833494 1.9736058
-0.83961815 0.45802739 1.9336959
-0.80892479 0.44638741 1.8882611
-0.79287159 0.44261876 1.8761997
-0.80263388 0.45340768 1.9256307
-0.79296988 0.45328385 1.929013
-0.68390805 0.41069889 1.7612846
-0.70761508 0.4303942 1.8492727
-0.71537948 0.44074014 1.8972089
-0.73079622 0.45613325 1.9670746
-0.70901537 0.4484503 1.9374212
-0.67575222 0.45778036 1.9946333
-0.4210234 0.41549534 1.8557009
-0.40827945 0.41145715 1.8390228
-0.34595978 0.43092912 1.9358019
-0.3373847 0.4314785 1.9392549
-0.29173428 0.40593135 1.8265178
-0.057535872 0.44572973 2.0154572
-1.0978872 0.4671554 1.9022689
-1.073954 0.46095946 1.8747842
-0.98341256 0.43359953 1.7581061
-0.99326003 0.4586907 1.8560667
-1.0026317 0.46744451 1.8915118
-0.90349972 0.44696659 1.814792
-0.86101806 0.43475261 1.7693921
-0.84208143 0.43887827 1.7936035
-0.82673776 0.43554544 1.782849
-0.81268919 0.43282807 1.7748818
-0.81001258 0.4361701 1.7917025
-0.85776228 0.46707484 1.9219875
-0.85090494 0.46857512 1.9317093
-0.78316444 0.44647223 1.8512416
-0.79210359 0.45688391 1.8982706
-0.68751395 0.40617508 1.6942062
-0.67499661 0.40368 1.6870939
-0.67077458 0.40614554 1.700713
-0.67513502 0.41393524 1.7367107
-0.7123822 0.45396718 1.9153377
-0.69710767 0.45016783 1.9027288
-0.60020357 0.40365764 1.7150623
-0.600061 0.40921625 1.7415589
-0.67199153 0.46484753 1.9813088
-0.40513536 0.41687587 1.8235179
-0.35254115 0.44830155 1.9713243
-0.33809096 0.44155926 1.9424044
-0.019757716 0.44993991 1.9919766
-0.010378956 0.44598618 1.9745344
1.1586399 0.51636016 2.0893862
-1.0283492 0.44656062 1.7827718
-0.83850086 0.44599533 1.7845982
-0.82799798 0.44520125 1.7840668
-0.80438352 0.43726081 1.7550844
-0.80123627 0.45547926 1.8413981
-0.71448272 0.42564932 1.734116
-0.6815834 0.41103554 1.6776915
-0.67066228 0.40938509 1.6742852
-0.66924453 0.41360179 1.6948378
-0.66433233 0.4157379 1.7068583
-0.60151029 0.41294405 1.7169659
-0.59772575 0.41609603 1.7329972
-0.43162772 0.44388333 1.8995523
-0.33530688 0.42412949 1.8251336
-0.010548967 0.46233359 2.0048687
0.074237347 0.41418698 1.7955981
-0.92600793 0.41026476 1.6064018
-0.70141369 0.42631111 1.7004615
-0.6827032 0.41999841 1.6784043
-0.66633707 0.41496742 1.6616083
-0.66581351 0.41980007 1.68425
-0.65780973 0.42003554 1.6882024
-0.5985328 0.42510244 1.733269
-0.55764896 0.45336914 1.8733013
-0.32404825 0.42914498 1.8098072
-0.15236056 0.42423069 1.8003469
-0.15128259 0.47356382 2.010087
0.94142824 0.51198655 2.004385
1.1438438 0.53080672 2.0640268
-0.64737213 0.49676841 1.9964864
-0.625328 0.48708332 1.960596
-0.61999243 0.4903807 1.9765954
-0.57327551 0.46775365 1.8907186
-0.55136168 0.45709682 1.8500009
-0.15896656 0.42785323 1.7790689
-0.14917165 0.42365193 1.7620902
-0.59944981 0.44261134 1.7317247
-0.65973008 0.49404299 1.9361631
-0.65702444 0.49911022 1.9592006
-0.62728274 0.49812296 1.964394
-0.61325711 0.49443576 1.9528092
-0.55923408 0.4726406 1.8744106
-0.3313466 0.44451597 1.7998471
-0.19725324 0.49001262 1.9969921
-0.14885893 0.43089867 1.7571115
-0.40773284 0.45322868 1.7883505
-0.32103699 0.41754961 1.6558276
-0.31469941 0.41952819 1.6647428
-0.33396196 0.45658273 1.812597
0.96656299 0.52315575 1.9182153
-0.5652386 0.48806062 1.8578323
-0.40888736 0.46302775 1.7918392
-0.3165983 0.41949797 1.6315902
-0.31478807 0.42751694 1.6638037
-0.13602193 0.48982459 1.9228196
1.0131127 0.54219627 1.9497653
-0.4106783 0.47361371 1.7979888
-0.39745516 0.46808067 1.7784424
-0.31130904 0.42003566 1.6029586
-0.30800295 0.42595595 1.6265622
0.081584707 0.51043224 1.967719
0.99494708 0.54218608 1.9147961
1.0207108 0.55090046 1.9456762
-0.61195189 0.49317139 1.7866517
-0.61889744 0.50600952 1.8362172
-0.30899054 0.42445329 1.5896051
-0.30855408 0.43444332 1.6280384
0.039582875 0.45865694 1.7364382
0.047529131 0.45704448 1.7301151
