# .PCD v0.7 - Point Cloud Data file format
VERSION 0.7
FIELDS x y z
SIZE 4 4 4
TYPE F F F
COUNT 1 1 1
WIDTH 1573
HEIGHT 1
VIEWPOINT 0 0 0 1 0 0 0
POINTS 1573
DATA ascii
-1.118642 -0.59944201 2.0280268
-1.1190355 -0.60519785 2.0449867
-1.1054963 -0.60346973 2.036902
-1.068925 -0.60033238 2.0213332
-1.0730841 -0.60855281 2.0477462
-1.0626646 -0.60856801 2.0469286
-1.0463997 -0.60518688 2.0350111
-1.0428816 -0.60917002 2.0481029
-1.0302331 -0.60783464 2.0436282
0 0 0
0 0 0
-0.81656516 -0.52412492 1.7706007
-0.78179681 -0.50741106 1.7160435
-0.76857662 -0.50443202 1.7080598
-0.76197135 -0.50574684 1.7148063
-0.77435654 -0.51985288 1.7652576
0 0 0
0 0 0
0 0 0
-0.7124446 -0.52013683 1.7862794
-0.69640231 -0.51485509 1.771364
-0.86752677 -0.70363778 2.450609
-0.85889268 -0.70640606 2.4644585
-0.85842419 -0.71613425 2.5026636
-0.86107093 -0.72879493 2.5507822
-0.84946173 -0.72949767 2.5574164
-0.82990432 -0.72329408 2.5397236
-0.81553781 -0.72149569 2.5374534
-0.80822057 -0.72605884 2.5571041
-0.80212879 -0.73179513 2.5812378
-0.79357213 -0.73542839 2.597918
-0.78475606 -0.73902041 2.614099
-0.77452987 -0.75367516 2.6731048
-0.75989681 -0.75199598 2.6705248
-0.74547213 -0.75028956 2.6680562
-0.72982794 -0.74745208 2.6611457
-0.71471667 -0.74506539 2.6557302
-0.70394975 -0.74710745 2.6660984
-0.69385433 -0.75004178 2.6794958
-0.67413843 -0.74239248 2.6550643
-0.66411 -0.7455042 2.6687884
-0.65224034 -0.74643737 2.6748645
-0.63978434 -0.7467199 2.6786127
-0.62482989 -0.74422526 2.6719916
-0.61099166 -0.74287093 2.6693649
-0.59556824 -0.73939741 2.6593316
-0.58259201 -0.7390694 2.6602883
-0.57218516 -0.74193913 2.6726751
-0.56133664 -0.74425864 2.6833191
-0.54586077 -0.74060768 2.6721215
-0.5331856 -0.74054509 2.6737742
-0.52094561 -0.7412129 2.6779778
-0.50639772 -0.73841441 2.6695659
-0.49263605 -0.73676825 2.6653094
-0.48019421 -0.73692071 2.6674695
-0.47043616 -0.74143708 2.685349
-0.45935628 -0.74405336 2.6963608
-0.44319919 -0.73835063 2.6771324
-0.42924944 -0.73594171 2.669745
-0.41578916 -0.734393 2.6654704
-0.40255621 -0.73315138 2.6622193
-0.38962933 -0.73239434 2.6606386
0 0 0
-0.27882522 -0.56018639 2.0366986
-0.26997137 -0.5616473 2.0427747
-0.25876629 -0.55813473 2.0307584
0 0 0
0 0 0
-0.23749779 -0.57597893 2.0978751
-0.22535399 -0.57022691 2.0775006
-0.21513265 -0.56885219 2.0730007
-0.20489779 -0.56748009 2.0684419
-0.19413061 -0.56434536 2.057693
-0.18287365 -0.559443 2.0401881
-0.17712852 -0.5717113 2.0855477
-0.16400509 -0.56026423 2.0440302
-0.15236305 -0.552692 2.0168746
-0.14247483 -0.55120474 2.0116835
-0.12991945 -0.53811312 1.9642998
-0.12055463 -0.53724217 1.9614531
-0.11046633 -0.53302622 1.9463291
-0.099665411 -0.5239709 1.9135274
-0.091340408 -0.52777171 1.9276123
-0.082456462 -0.52841818 1.9301169
-0.073503636 -0.52915275 1.9329437
-0.064670071 -0.53105611 1.9399793
-0.055835564 -0.53290302 1.9469726
-0.046936087 -0.53549242 1.9564546
-0.03793693 -0.53783369 1.9651952
-0.028876759 -0.54059541 1.9752454
-0.0013255879 -0.60342151 2.2050107
0.0090687983 -0.60803121 2.2218554
0.019457024 -0.60752273 2.2199268
0.029730054 -0.60502404 2.2106569
0.039880671 -0.60302085 2.203198
0.050072413 -0.60142529 2.1974139
0.058973309 -0.58755893 2.1464789
0.067464009 -0.57417452 2.0975597
0.077580556 -0.57681769 2.1068823
0.087721437 -0.57851982 2.1130092
0.095442414 -0.5655241 2.0653241
0.10427821 -0.56125826 2.0495276
0.11331163 -0.55835372 2.0387049
0.12279283 -0.55821973 2.0378702
0.13218498 -0.55744773 2.0347714
0.14165479 -0.55733037 2.0339334
0.15121026 -0.55753535 2.0342717
0.16083507 -0.55772519 2.0344894
0.17027217 -0.5574187 2.0330677
0.17947766 -0.55647743 2.0290966
0.18875343 -0.55576688 2.0261381
0.19704738 -0.55242383 2.013288
0.19974636 -0.53434938 1.9470006
0.20852092 -0.53345007 1.9430218
0.21734089 -0.53267044 1.939644
0.22652462 -0.5327993 1.9395747
0.23531359 -0.53215551 1.9366314
0.24418169 -0.53165013 1.9339067
0.25344652 -0.53207719 1.9347981
0.26256019 -0.5320347 1.9339195
0.27000821 -0.52884537 1.9215451
0.27762634 -0.526061 1.9106506
0.28644511 -0.52575988 1.9087185
0.29574171 -0.52631998 1.9098508
0.30491412 -0.52662534 1.9100568
0.31364378 -0.5261634 1.9074187
0.32237706 -0.52572632 1.9048108
0.33167151 -0.52625781 1.9054289
0.34171686 -0.52785683 1.9101285
0.35021177 -0.52703381 1.9060003
0.35914874 -0.52698445 1.9046715
0.36862153 -0.52761072 1.9056598
0.37971401 -0.53046381 1.9146823
0.39268658 -0.53582752 1.9326839
0.40227813 -0.53641242 1.9332081
0.41186914 -0.53690529 1.9335592
0.42136821 -0.53733367 1.9336127
0.43040797 -0.53714961 1.9311734
0.44004083 -0.5377093 1.9316313
0.44950569 -0.53802758 1.930931
0.45916048 -0.53849053 1.9309092
0.46820706 -0.53836596 1.928491
0.47711772 -0.53801972 1.9252802
0.48480111 -0.53632647 1.9171935
0.47807592 -0.5191161 1.8536488
0.48545232 -0.51749796 1.845793
0.49421024 -0.51738203 1.8433015
0.50408727 -0.51841891 1.8447926
0.51294404 -0.51838672 1.8424741
0.52209544 -0.5186463 1.8411912
0.53224236 -0.51992816 1.8431941
0.54385799 -0.52251828 1.8499707
0.55470717 -0.52435923 1.8538575
0.56662315 -0.52707267 1.8609622
0.58264631 -0.53346473 1.8807293
0.60057032 -0.54142946 1.9059656
0.62727225 -0.55694699 1.9575366
0.63725096 -0.55731815 1.9557842
0.65201104 -0.56185466 1.9685566
0 0 0
0.8270396 -0.69213474 2.4173017
0.84090012 -0.69383979 2.4192076
0.84704363 -0.68915302 2.3986835
0.86061889 -0.6906231 2.3996089
0.88220918 -0.69833416 2.4220815
0.896568 -0.70017302 2.4244115
0.91138536 -0.70239645 2.4276009
0.92486393 -0.70346159 2.4270492
0.93819368 -0.70446771 2.4259973
0.9523716 -0.70597339 2.4270513
0.96538991 -0.7066707 2.4251108
0.9767136 -0.70610082 2.4189374
1.0246654 -0.71428472 2.4343634
1.0391598 -0.71585071 2.435617
1.0495561 -0.71453094 2.4276159
1.0601014 -0.71341568 2.4200344
1.0741677 -0.71460497 2.4207494
1.0916332 -0.7180469 2.4291534
1.1049484 -0.71875602 2.4282892
1.125139 -0.72380143 2.4426174
1.1381432 -0.72411817 2.4412496
1.1476402 -0.72231132 2.4327219
1.1594036 -0.72195858 2.4294655
1.1716945 -0.72185516 2.4276168
1.1769469 -0.71754503 2.411711
1.204867 -0.72699779 2.4423375
1.2131387 -0.72446573 2.433147
1.2097005 -0.7151047 2.4012303
0 0 0
0 0 0
0 0 0
0 0 0
0 0 0
0 0 0
0 0 0
0 0 0
0 0 0
0 0 0
0 0 0
0 0 0
0 0 0
-1.123306 -0.5916298 2.0351274
-1.1156919 -0.59307951 2.0377641
-1.1012871 -0.59092039 2.02809
-1.0593116 -0.57921135 1.9846319
-1.0725126 -0.59206516 2.0274074
-1.0656996 -0.5940333 2.0331295
-1.0608422 -0.59712291 2.0430791
-1.0489913 -0.59624135 2.0396893
-1.0380201 -0.59598857 2.0385249
-1.0284309 -0.59640491 2.0402148
0 0 0
0 0 0
0 0 0
0 0 0
-0.79140115 -0.50486875 1.7384896
-0.77692002 -0.50114036 1.7280041
-0.76268232 -0.49759498 1.7181121
-0.7557196 -0.49870124 1.7244126
-0.75091124 -0.5012843 1.7361015
0 0 0
-0.75432438 -0.51554501 1.7912443
-0.74552447 -0.51566976 1.7946583
0 0 0
0 0 0
-0.71647614 -0.51417053 1.7987409
-0.69499946 -0.50502294 1.7699519
-0.69515896 -0.51160783 1.7962226
-0.86301309 -0.6880393 2.441211
-0.85901403 -0.69445699 2.4682727
-0.85082763 -0.69762391 2.4836738
-0.85389405 -0.71031225 2.533067
-0.84964842 -0.71721572 2.5614727
-0.83690602 -0.71695858 2.5646434
-0.82127517 -0.71418184 2.558784
-0.81394303 -0.71864712 2.5787101
-0.80767441 -0.72429109 2.6026118
-0.7974785 -0.7264477 2.6141586
-0.78869659 -0.73006904 2.6306942
-0.78437763 -0.73791802 2.6628339
-0.77970982 -0.74569768 2.6943078
-0.76279783 -0.74191487 2.6839345
-0.74831164 -0.74039853 2.6817358
-0.73540539 -0.74032801 2.6846781
-0.71999466 -0.7377755 2.6785202
-0.70891666 -0.7395559 2.6880891
-0.69523937 -0.73863697 2.6876743
-0.67977321 -0.73583877 2.6804059
-0.66545224 -0.73418397 2.6768794
-0.65597177 -0.73781508 2.6929507
-0.64263761 -0.73735404 2.6936033
-0.62844038 -0.73566705 2.690088
-0.61232919 -0.7317065 2.6778338
-0.5975647 -0.72931939 2.6713181
-0.58555388 -0.73006034 2.6763976
-0.5758003 -0.73379326 2.6921403
-0.56300741 -0.73383963 2.6943676
-0.54943836 -0.73272914 2.6921699
-0.53557485 -0.73115575 2.6882634
-0.52257597 -0.73082769 2.6888437
-0.51026243 -0.73133284 2.6924026
-0.49528021 -0.72805935 2.6820426
-0.48259109 -0.72793406 2.6831858
-0.47146595 -0.73034894 2.6936097
-0.45818165 -0.7294507 2.6918173
-0.44390762 -0.72673011 2.6832056
-0.43092802 -0.72616643 2.6824646
-0.41791508 -0.72550046 2.6813431
-0.40502694 -0.72500592 2.6806803
-0.39206892 -0.72433949 2.6794658
-0.28489387 -0.56261563 2.0826473
-0.27341342 -0.55909878 2.070394
-0.26134965 -0.55407697 2.0524905
0 0 0
0 0 0
-0.23725754 -0.56553715 2.0971754
-0.22564586 -0.56117088 2.0814855
-0.21487564 -0.55858445 2.0724571
-0.20486613 -0.55763268 2.0693581
-0.1945079 -0.55569947 2.0628574
-0.18360727 -0.55199206 2.0494576
0 0 0
-0.16423695 -0.55154783 2.0486434
-0.15259925 -0.54415524 2.0216515
-0.14469802 -0.5500468 2.0437059
-0.13418207 -0.5463081 2.0302188
-0.12266506 -0.53732353 1.9971642
-0.1124933 -0.5335899 1.983385
-0.099608652 -0.51475573 1.9135761
-0.091063134 -0.51718026 1.9227887
-0.082370572 -0.51913613 1.9304879
-0.073606409 -0.52069497 1.9364244
-0.064717248 -0.52215886 1.9419471
-0.055787653 -0.52370203 1.9477034
-0.046838272 -0.52554029 1.9547873
-0.037894446 -0.52754527 1.9622003
-0.028863283 -0.53026152 1.9724282
0 0 0
-0.011655957 -0.59375584 2.2085595
-0.0013412001 -0.6005047 2.2337334
0.0090865223 -0.59921741 2.2288747
0.019541254 -0.60013521 2.232218
0.029714869 -0.59471691 2.2122545
0.040083483 -0.59502637 2.2131958
0.050597198 -0.59774965 2.2231846
0.061093841 -0.59862113 2.2264059
0.067360394 -0.56387812 2.0969236
0.077299431 -0.56473744 2.1000342
0.087445796 -0.56673145 2.1072972
0.095239364 -0.55505162 2.0634761
0.10463402 -0.55357713 2.0577807
0.11339187 -0.54925603 2.0414414
0.12243513 -0.54716015 2.033376
0.13176619 -0.54628336 2.0297775
0.14135079 -0.54668075 2.0311534
0.15132843 -0.54826713 2.0365775
0.16086009 -0.54835731 2.0364423
0.17015822 -0.54761416 2.033452
0.17941877 -0.54668969 2.0294857
0.18837555 -0.54515904 2.0232072
0.19581456 -0.53952283 2.0018718
0.19905463 -0.52335083 1.9414608
0.20784993 -0.52261168 1.9380236
0.21766937 -0.52433473 1.9438826
0.22666049 -0.52413696 1.9426188
0.23509757 -0.52257603 1.9362427
0.24442966 -0.52303755 1.9372995
0.25376177 -0.52358437 1.9386705
0.2623294 -0.52250099 1.9337161
0.27087024 -0.52149141 1.9292042
0.27789205 -0.5177092 1.9144422
0.28676084 -0.51737916 1.9123907
0.29583779 -0.51753283 1.9120657
0.30479974 -0.51747489 1.9109585
0.31362435 -0.51718676 1.9089407
0.3225798 -0.51711774 1.9076701
0.33147788 -0.51695639 1.9059979
0.34053063 -0.51703185 1.9051986
0.349365 -0.5168646 1.9034433
0.35851145 -0.51706147 1.9030285
0.36775979 -0.51738608 1.9029597
0.37799284 -0.51904136 1.9077795
0.38830099 -0.52079678 1.9129587
0.39949232 -0.52354324 1.9216423
0.41164523 -0.52753562 1.9346514
0.4212313 -0.52799326 1.9348495
0.43028545 -0.52785021 1.9328449
0.43892071 -0.52719212 1.9286022
0.44741172 -0.52639979 1.9241012
0.45803031 -0.5280776 1.9283971
0.46773243 -0.52858841 1.9285268
0.47624952 -0.5278933 1.9240279
0.47631598 -0.51796448 1.8858525
0.47665033 -0.5086925 1.8503011
0.48482993 -0.50797158 1.845608
0.49370867 -0.5079937 1.8436171
0.50271612 -0.50814307 1.8420261
0.51181448 -0.50843537 1.840891
0.52125514 -0.50905144 1.8406445
0.53170675 -0.51055723 1.8437631
0.54362243 -0.51339406 1.8516681
0.557652 -0.51816243 1.8662213
0.57099932 -0.52203703 1.8776722
0.58284146 -0.52455109 1.8839126
0.60387242 -0.53513074 1.9190501
0.62577891 -0.54609776 1.9553322
0.63743913 -0.54791921 1.9590291
0.65200907 -0.55215889 1.9710407
0 0 0
0.83064574 -0.68330711 2.4312494
0.84100312 -0.68210024 2.4228244
0.85400647 -0.68297809 2.4218071
0.87658763 -0.69145083 2.4475818
0.88497341 -0.68858516 2.4331045
0.8981213 -0.68943292 2.4319682
0.90918982 -0.68870085 2.4249697
0.92317528 -0.69022989 2.4258454
0.93719208 -0.69172138 2.4267757
0.95180345 -0.69354624 2.4288535
0.96592426 -0.6950295 2.429631
0.97881079 -0.69551432 2.4271102
0.98378694 -0.69057113 2.4053869
0 0 0
1.0028253 -0.68712401 2.3852434
1.0406331 -0.70462334 2.4419174
1.055855 -0.70650983 2.444576
1.0587993 -0.70033509 2.4194455
1.0719941 -0.70096731 2.4180617
1.0884103 -0.70371276 2.4239464
1.1049948 -0.70643473 2.4302974
1.1160237 -0.70562422 2.4244826
1.1302315 -0.70682764 2.4259555
1.1432978 -0.70733672 2.4250338
1.155606 -0.70729089 2.4227827
1.168694 -0.70771813 2.4224365
1.1895951 -0.71284962 2.4382591
1.2029353 -0.71335268 2.438904
1.205213 -0.70742977 2.4176698
0 0 0
0 0 0
0 0 0
0 0 0
0 0 0
0 0 0
0 0 0
0 0 0
0 0 0
0 0 0
0 0 0
0 0 0
0 0 0
-1.1277878 -0.57840699 2.0258465
-1.1254852 -0.58251619 2.0377815
-1.1148659 -0.58232945 2.0350137
-1.0862114 -0.5726437 1.9993479
-1.0625046 -0.5654186 1.9724774
-1.0736288 -0.57678306 2.0107038
-1.0785987 -0.58507901 2.0383375
-1.0704323 -0.58628768 2.0417707
-1.0575408 -0.58484882 2.0363116
-1.0485616 -0.58566356 2.0388458
-1.0374867 -0.58529693 2.037447
-1.0252328 -0.58416599 2.0340316
0 0 0
0 0 0
0 0 0
-0.8106755 -0.50252467 1.7604251
-0.78996509 -0.49514183 1.736696
-0.78150451 -0.4953638 1.7398174
-0.77339596 -0.49578673 1.7438555
-0.76543289 -0.49634579 1.7483745
-0.74756807 -0.49039468 1.7301404
-0.74038529 -0.49136773 1.7365152
-0.74434584 -0.4998832 1.7695394
-0.74578124 -0.50686365 1.7974359
0 0 0
0 0 0
-0.69113499 -0.49345461 1.7624061
-0.69893628 -0.50541574 1.8083317
0 0 0
0 0 0
0 0 0
-0.8671056 -0.679308 2.4561555
-0.85897833 -0.68237984 2.4714713
-0.85413212 -0.68818259 2.4967322
-0.85166311 -0.69609588 2.5295668
-0.84650761 -0.70208335 2.555485
-0.8394118 -0.70663017 2.5758252
-0.82942224 -0.70875406 2.5875952
-0.82023954 -0.71164292 2.6021006
-0.81181872 -0.7153796 2.6194258
-0.79936719 -0.71545994 2.6235263
-0.78861177 -0.71725082 2.6335907
-0.78773415 -0.72822934 2.6773629
-0.77683681 -0.73015428 2.6879101
-0.7612285 -0.72746646 2.6816204
-0.74877429 -0.72792619 2.6865971
-0.73784298 -0.72981822 2.6967824
-0.72421402 -0.72914726 2.697413
-0.70735431 -0.72513455 2.6852486
-0.69445342 -0.72501248 2.6877999
-0.68042946 -0.72368819 2.6857123
-0.67116272 -0.72764933 2.7029233
-0.6601755 -0.72967237 2.7132819
-0.64750433 -0.72996205 2.7166994
-0.62701982 -0.72118157 2.6866558
-0.61243367 -0.71914756 2.6812952
-0.60079414 -0.72044897 2.6883669
-0.58846092 -0.72094935 2.6922803
-0.57517415 -0.72027016 2.6917872
-0.56466502 -0.723221 2.7047787
-0.55086291 -0.72187132 2.70169
-0.53692353 -0.72026533 2.6974595
-0.52266675 -0.71825582 2.6917076
-0.51095593 -0.71960133 2.6985264
-0.49851704 -0.7200802 2.701926
-0.48429248 -0.7177999 2.6949675
-0.47108608 -0.71706903 2.6938188
-0.45899168 -0.71802747 2.6988435
-0.4461557 -0.71769875 2.6990306
-0.43232664 -0.71592534 2.6933701
-0.41890624 -0.71464014 2.6898642
-0.40567786 -0.71360195 2.6871977
-0.39323139 -0.71390575 2.6894968
0 0 0
-0.28451067 -0.55205148 2.0813959
-0.27309114 -0.54868531 2.0694592
0 0 0
-0.25581717 -0.55332994 2.0883658
0 0 0
-0.23609015 -0.55295497 2.0882041
-0.2252316 -0.55037552 2.0790203
-0.2148312 -0.54872078 2.0732591
-0.20503557 -0.54851454 2.0729036
-0.19454229 -0.5462501 2.0650153
-0.18405785 -0.54383391 2.0562356
0 0 0
0 0 0
-0.15261117 -0.53487551 2.0233948
-0.14393821 -0.53770834 2.0345113
-0.13650417 -0.54588604 2.0658591
-0.12387386 -0.53327662 2.0182314
-0.1125445 -0.52455902 1.9855661
-0.10005207 -0.50804085 1.9232366
-0.091145925 -0.50860405 1.9255643
-0.082328103 -0.5098244 1.9303806
-0.073812157 -0.51343048 1.9441706
-0.064800672 -0.51355296 1.9449415
-0.055612899 -0.51271778 1.9417915
-0.046632867 -0.51382166 1.9459851
-0.037753489 -0.516747 1.9572495
-0.028666854 -0.5177989 1.9613576
0 0 0
-0.011844541 -0.59322 2.2469876
-0.0013491815 -0.59392387 2.2497246
0.0091360826 -0.59235805 2.2437227
0.019407481 -0.58600783 2.2195992
0.029746922 -0.58541942 2.2173007
0.040278398 -0.5878678 2.2266295
0.050768729 -0.58887506 2.2303035
0.061278809 -0.58972919 2.2332566
0.067017652 -0.55103403 2.0867071
0.076640889 -0.55003816 2.0828562
0.086147025 -0.54899031 2.0784941
0.095070079 -0.54437387 2.0608721
0.10439648 -0.5426929 2.0542996
0.11383558 -0.54182106 2.0507259
0.12221962 -0.53672588 2.0311706
0.13144907 -0.53553802 2.026341
0.14107576 -0.53601086 2.0277956
0.15114945 -0.53817195 2.0357499
0.1606169 -0.53809559 2.034996
0.16976294 -0.53680056 2.0296345
0.17903678 -0.53614712 2.0268788
0.18804251 -0.53484797 2.0213768
0.19457588 -0.52690792 1.990962
0.1987139 -0.51333398 1.9392754
0.20782401 -0.51343668 1.9389727
0.21760015 -0.51518673 1.94506
0.22669084 -0.51508856 1.9441674
0.23524022 -0.5138061 1.9387444
0.24485998 -0.51486069 1.942078
0.25388238 -0.51474494 1.9409956
0.26228446 -0.5132938 1.9348178
0.27084443 -0.51234686 1.9304817
0.27819175 -0.50923342 1.9179882
0.28692925 -0.50866395 1.9150205
0.29579377 -0.50844514 1.9133127
0.30453399 -0.50802469 1.9108469
0.31343278 -0.5078783 1.9093515
0.32233694 -0.50774175 1.9078318
0.33136535 -0.50779635 1.9070302
0.33991542 -0.50712794 1.9033923
0.34922332 -0.50767797 1.904388
0.35795662 -0.50729346 1.9017552
0.36754671 -0.50810623 1.9036092
0.37763104 -0.50962394 1.9080369
0.38819298 -0.51161367 1.914161
0.39862773 -0.51334292 1.9193003
0.40907583 -0.51508421 1.9244127
0.42107505 -0.51857793 1.9359951
0.43012437 -0.51849926 1.9339347
0.4378826 -0.5167613 1.9259233
0.44719654 -0.51695997 1.9250711
0.45704907 -0.51781821 1.9263763
0.46661237 -0.51818728 1.9260888
0.4708049 -0.51281786 1.9041951
0.46959183 -0.5017457 1.8613517
0.47599402 -0.49912804 1.8496354
0.48384064 -0.49815261 1.8440186
0.49296436 -0.49844041 1.8429598
0.50261372 -0.49929792 1.844002
0.51175225 -0.49956623 1.8428026
0.52116221 -0.5000838 1.8425189
0.5306139 -0.50062138 1.8421826
0.54236752 -0.50333601 1.8496184
0.55603558 -0.50765008 1.8630598
0.56887716 -0.51108176 1.8731637
0.57977194 -0.51274419 1.8764689
0.61237496 -0.53325909 1.9486474
0.62558961 -0.53640485 1.9573979
0.63653445 -0.53765661 1.9589123
0.64851582 -0.53967994 1.9631541
0 0 0
0.82986182 -0.67082793 2.4321971
0.84121537 -0.67044479 2.4267573
0.86534196 -0.68004656 2.4573214
0.88273615 -0.67485607 2.4302974
0.89294881 -0.67351669 2.4210787
0.90451986 -0.67328441 2.4158502
0.92088813 -0.67658257 2.4231875
0.93526155 -0.67826754 2.4249251
0.94950783 -0.67981642 2.4261546
0.96362668 -0.68129224 2.4270213
0.97733092 -0.68244016 2.4266191
0.98921144 -0.68230009 2.4216292
0.98555917 -0.67155129 2.3792636
1.0427866 -0.69376373 2.4495411
1.0535239 -0.69278771 2.441951
1.0659996 -0.69287455 2.4384048
1.0734012 -0.68966156 2.4235532
1.0879542 -0.69116104 2.4251821
1.0985743 -0.69019985 2.4182537
1.1124066 -0.69113076 2.4185381
1.1248405 -0.69127232 2.4160502
1.1409351 -0.69359064 2.4214489
1.1533784 -0.69366616 2.4192979
1.166798 -0.69432098 2.4195392
1.1767204 -0.69290018 2.4129241
1.1987948 -0.69858509 2.4313359
1.2123476 -0.69923037 2.4324894
0 0 0
0 0 0
0 0 0
0 0 0
0 0 0
0 0 0
0 0 0
0 0 0
0 0 0
0 0 0
0 0 0
0 0 0
-1.1390222 -0.56351626 2.0135443
-1.1425284 -0.57038432 2.0351701
-1.1374342 -0.57301366 2.0419025
-1.1302518 -0.57459974 2.0453224
-1.1186481 -0.57399201 2.0409417
-1.0917305 -0.56541437 2.0085974
-1.0754589 -0.56221545 1.9958042
-1.0760312 -0.56785947 2.0146585
-1.083896 -0.57754833 2.04791
-1.0749067 -0.57826382 2.049917
-1.0631844 -0.57760298 2.0471199
-1.0505182 -0.57635403 2.0425699
-1.0342829 -0.57312715 2.0313375
0 0 0
-0.89771885 -0.5128271 1.8197089
0 0 0
0 0 0
0 0 0
0 0 0
-0.78495908 -0.48329532 1.7271131
-0.78507096 -0.48875967 1.7492452
-0.79183221 -0.49860433 1.7870709
-0.79883116 -0.50879806 1.8265367
-0.76305377 -0.49166089 1.7677836
-0.74129486 -0.48327181 1.740553
-0.73012412 -0.48160407 1.7376218
-0.72457337 -0.48372453 1.7483596
0 0 0
0 0 0
0 0 0
0 0 0
0 0 0
0 0 0
0 0 0
-0.87341744 -0.66285712 2.4390726
-0.86680889 -0.66700351 2.4586003
-0.86394489 -0.67420739 2.4890811
-0.85795742 -0.67905957 2.5111744
-0.85297436 -0.68485826 2.5368335
-0.84515011 -0.68851209 2.5545213
-0.83915579 -0.69387299 2.5781088
-0.82992458 -0.69659138 2.5922389
-0.82096106 -0.69962108 2.6075611
-0.81295621 -0.70366138 2.6261942
-0.80134952 -0.70466036 2.6335013
-0.78717583 -0.70330852 2.6321704
-0.7767306 -0.70530605 2.6430535
-0.77345717 -0.71406859 2.6793387
-0.76210076 -0.71545404 2.6878154
-0.75142831 -0.71762156 2.6991575
-0.74097872 -0.71999252 2.7112842
-0.72633415 -0.71829611 2.7080083
-0.70852184 -0.71343422 2.6927691
-0.69414115 -0.71190596 2.6895781
-0.68615037 -0.71690243 2.7113822
-0.67364281 -0.71736526 2.7156391
-0.66233838 -0.7190572 2.724802
-0.64889371 -0.7186293 2.7255125
-0.63510978 -0.71769345 2.7242913
-0.62086374 -0.71617836 2.7207742
-0.6055364 -0.71323013 2.712043
-0.59205461 -0.71245915 2.7112446
-0.57802862 -0.71097696 2.7076447
-0.56485641 -0.71060336 2.7081726
-0.55334324 -0.71222746 2.7162297
-0.53965759 -0.71105772 2.7136319
-0.52465069 -0.70824367 2.7043295
-0.5117293 -0.70795429 2.7049043
-0.49876484 -0.70770329 2.7056236
-0.48655289 -0.70839953 2.7098777
-0.47378701 -0.70842522 2.7114809
-0.46104047 -0.70833927 2.7126558
-0.44713962 -0.70663798 2.7072225
-0.43329939 -0.70483369 2.7016325
-0.41982114 -0.7035166 2.6978176
-0.40677539 -0.70285422 2.6965089
-0.39367345 -0.70212394 2.6945219
-0.26991004 -0.53272748 2.0467744
-0.25971279 -0.53143132 2.0425289
-0.25292385 -0.53740579 2.0661681
0 0 0
-0.23593609 -0.54281199 2.0881205
-0.22535545 -0.54091907 2.0813868
-0.21491177 -0.53918654 2.0752008
-0.20486757 -0.5383271 2.0723066
-0.19663173 -0.54229099 2.0882368
-0.1853096 -0.53777146 2.0711808
0 0 0
0 0 0
-0.1516552 -0.52198642 2.0113866
-0.14323388 -0.52568179 2.0260837
-0.13593015 -0.53409493 2.058594
-0.12573709 -0.53176039 2.0499935
-0.11076561 -0.50686836 1.9542879
-0.09994635 -0.49851808 1.9223439
-0.091376789 -0.500835 1.9314699
-0.082411245 -0.50123847 1.9331566
-0.073564894 -0.50254059 1.9383096
-0.06471628 -0.50417352 1.9446781
-0.0555415 -0.50330275 1.9415642
-0.046512034 -0.50372714 1.94321
-0.037580796 -0.50558776 1.9505724
-0.028696399 -0.50953156 1.9657345
0 0 0
-0.011811544 -0.58145332 2.2433448
-0.0013451964 -0.58204526 2.2456994
0.0090350797 -0.57579374 2.2215791
0.019344989 -0.57413411 2.215106
0.029832561 -0.57706702 2.2262812
0.040344037 -0.5788278 2.2329335
0.050858431 -0.57982844 2.2368538
0.060840119 -0.57549572 2.2198591
0.06673301 -0.5393104 2.080272
0.076374307 -0.53881586 2.0780368
0.085983008 -0.5381633 2.0754452
0.095069796 -0.53469443 2.0618629
0.10417948 -0.53196931 2.0511508
0.11350021 -0.5306797 2.0459754
0.12233969 -0.52750564 2.0334077
0.13141283 -0.52597159 2.0272288
0.14092486 -0.52603412 2.027076
0.15061271 -0.52685577 2.0300951
0.16039099 -0.52771527 2.0329475
0.1696934 -0.52719277 2.0304117
0.17895649 -0.52635014 2.0268908
0.18765698 -0.52418721 2.018223
0.19519304 -0.5191856 1.9983234
0.19942296 -0.50617999 1.9478765
0.20817852 -0.50528586 1.9439856
0.21767572 -0.50624269 1.9469781
0.22723262 -0.50718915 1.9500419
0.23553285 -0.50535643 1.9424213
0.24471451 -0.50547183 1.9422903
0.25381222 -0.50552577 1.9417993
0.26285335 -0.50534004 1.9403872
0.27093676 -0.50349337 1.9326003
0.27860805 -0.50101703 1.9222795
0.28719836 -0.50018239 1.9182624
0.29597265 -0.49974403 1.9160012
0.30417436 -0.49844363 1.9100809
0.3128238 -0.4979234 1.9071532
0.32228062 -0.49867466 1.9090947
0.33130729 -0.49873102 1.9082519
0.34037077 -0.49883193 1.9075786
0.34917462 -0.4985505 1.9053824
0.35820153 -0.49867269 1.9047282
0.36784235 -0.49953371 1.9068321
0.37765515 -0.50065684 1.90987
0.3873305 -0.50146455 1.9116377
0.3974669 -0.50289088 1.9157572
0.40948951 -0.50650495 1.9281348
0.42011502 -0.50834042 1.933664
0.42896971 -0.50792158 1.9305507
0.43739143 -0.50708532 1.9258541
0.44698048 -0.50753307 1.9259719
0.45651078 -0.50802416 1.9260141
0.46489054 -0.50717592 1.9210908
0.46125573 -0.49349698 1.8673857
0.46749458 -0.49070051 1.8550903
0.47451133 -0.48880312 1.8459823
0.48307404 -0.48859695 1.8431493
0.4924114 -0.48904574 1.8430117
0.50244373 -0.49027127 1.8455075
0.51194674 -0.49088717 1.8456392
0.52032465 -0.49041951 1.8416959
0.52923906 -0.49046278 1.8395522
0.53832811 -0.49077708 1.8381964
0.55453157 -0.49734759 1.8604053
0.5656293 -0.49920022 1.8648638
0.57917994 -0.50313163 1.8768277
0.6124379 -0.52385151 1.9511553
0.62492013 -0.52637798 1.9578283
0.63831115 -0.5296458 1.966921
0.65196383 -0.53297794 1.9761485
0 0 0
0.86264783 -0.66588777 2.4529474
0.86627913 -0.65948516 2.4251432
0.87539411 -0.65743518 2.4133184
0.89111704 -0.66027623 2.4194424
0.9077214 -0.6637463 2.4276669
0.92041469 -0.66416287 2.4249952
0.93505263 -0.6660918 2.427449
0.94809532 -0.66676801 2.4256177
0.96047843 -0.66710609 2.4221687
0.97728962 -0.67039132 2.4296117
0.98943937 -0.67035323 2.4252856
0.98418546 -0.65874577 2.3787997
1.0252272 -0.67000437 2.4111242
1.051105 -0.678985 2.4390254
1.0619931 -0.67801738 2.4317355
1.0769174 -0.67971718 2.4339206
1.0900825 -0.68032563 2.4321811
1.1009891 -0.67940331 2.4256494
1.108876 -0.67669868 2.4126835
1.1236565 -0.67830426 2.4150853
1.138257 -0.67968959 2.4173658
1.1516306 -0.68035573 2.4170754
1.1628425 -0.6797443 2.41254
1.1827693 -0.6840992 2.4263
1.1995599 -0.6866464 2.4336274
1.2133538 -0.68743581 2.4351003
0 0 0
0 0 0
0 0 0
0 0 0
0 0 0
0 0 0
0 0 0
0 0 0
0 0 0
-1.1235281 -0.54587525 1.9848186
-1.1447155 -0.561171 2.0376742
-1.1399356 -0.56386757 2.0451224
-1.1309842 -0.56461149 2.0454876
-1.1187257 -0.5636735 2.0401108
-1.1020259 -0.5604319 2.0267565
-1.0840769 -0.55653489 2.0111327
-1.0801135 -0.55971485 2.0216844
-1.0828196 -0.56653333 2.0454392
-1.0760809 -0.56847364 2.0519073
-1.0631357 -0.56716037 2.046895
-1.0529881 -0.56727183 2.0474324
0 0 0
-0.91618031 -0.50356954 1.8183423
-0.91121632 -0.51119065 1.8477622
0 0 0
-0.8067798 -0.48782465 1.7767203
-0.78832102 -0.4819639 1.7581892
-0.787 -0.48666036 1.7779374
-0.7975142 -0.49877536 1.8253336
0 0 0
-0.73142439 -0.47949335 1.7669472
-0.71397805 -0.47378615 1.7489848
-0.71078795 -0.47745207 1.7658302
-0.69489336 -0.47260809 1.7510744
-0.68046242 -0.46868852 1.7396843
0 0 0
0 0 0
0 0 0
0 0 0
-0.8712073 -0.65827483 2.4740603
-0.86594605 -0.66353977 2.498091
-0.85802799 -0.66690922 2.5146415
-0.85155815 -0.6714322 2.5359044
-0.84861678 -0.67891043 2.5682337
-0.83827484 -0.68068773 2.5787296
-0.82990551 -0.68405688 2.5955234
-0.81278628 -0.69087267 2.6290219
-0.80772489 -0.69742966 2.6574867
-0.79156059 -0.69453001 2.6499352
-0.77743292 -0.69318426 2.6485353
-0.77158862 -0.69946855 2.6758921
-0.76690984 -0.70695621 2.7078292
-0.75506246 -0.70805949 2.7152627
-0.74223638 -0.70826852 2.7189317
-0.72689128 -0.70594364 2.7131147
-0.70867461 -0.7006923 2.6959283
-0.69396377 -0.6988619 2.6915369
-0.68362588 -0.70144504 2.7043073
-0.67629701 -0.70726705 2.7292562
-0.66310763 -0.70706129 2.7308748
-0.65285349 -0.70994371 2.7447724
-0.63810915 -0.70804626 2.7397618
-0.62265748 -0.70526123 2.7311242
-0.60816073 -0.70345509 2.7263501
-0.59459597 -0.70266443 2.7253268
-0.58141965 -0.70230019 2.7259529
-0.56831789 -0.70211196 2.7271719
-0.55439526 -0.70075846 2.7237718
-0.5370279 -0.6948753 2.7027457
-0.52671385 -0.69804609 2.71684
-0.51143467 -0.69482654 2.7056375
-0.49862683 -0.69466442 2.7066703
-0.48630336 -0.69530106 2.7107294
-0.47491828 -0.69721299 2.7196782
-0.46204016 -0.69718641 2.7207294
-0.44850594 -0.69603825 2.7175663
-0.43468785 -0.69435918 2.7123241
-0.42162317 -0.69389451 2.7114835
-0.40816206 -0.69262552 2.7077479
-0.39393076 -0.6899153 2.6982839
0 0 0
-0.26655659 -0.51667023 2.022747
-0.26021034 -0.52289021 2.0478241
-0.25096259 -0.5236575 2.0514257
-0.24907301 -0.54044139 2.1177919
-0.23588143 -0.53291732 2.0889139
-0.22514732 -0.53068084 2.0806196
-0.21470761 -0.52895552 2.0743906
-0.20513634 -0.52929515 2.0761271
-0.19718383 -0.53397334 2.0951445
-0.18751435 -0.53449547 2.0975349
-0.17992142 -0.54110646 2.1237571
0 0 0
-0.15163732 -0.51261801 2.0126581
-0.14249551 -0.51340383 2.01613
-0.13522825 -0.52183491 2.0493774
-0.12488247 -0.5186832 2.0373261
-0.11319619 -0.50868952 1.9983917
-0.099912211 -0.48937583 1.9227039
-0.091116823 -0.49039075 1.9268779
-0.083479516 -0.49853078 1.9590517
-0.073843099 -0.49525169 1.9462931
-0.06474518 -0.49515349 1.9459728
-0.055868041 -0.49690562 1.9531049
-0.046776734 -0.49712592 1.953975
-0.037779041 -0.49865863 1.959942
-0.028691223 -0.49949935 1.9633701
-0.011642977 -0.56318545 2.2139084
-0.0013268493 -0.56419027 2.217654
0.0089769708 -0.56220889 2.2097962
0.019274633 -0.56209558 2.2095547
0.029680489 -0.56413883 2.2175167
0.040412363 -0.56873006 2.2353528
0.050538708 -0.56544554 2.2223032
0.059631288 -0.5536114 2.1757882
0.066616058 -0.52854407 2.0770075
0.076598398 -0.53053916 2.0847771
0.086038515 -0.52873749 2.0775619
0.095325552 -0.52644223 2.068408
0.10413955 -0.5221855 2.0514846
0.1134787 -0.52104664 2.0467477
0.12249976 -0.51872796 2.0373778
0.13153207 -0.5170306 2.0303862
0.14081585 -0.51623952 2.0269551
0.15051039 -0.51688683 2.0292952
0.16019788 -0.51769078 2.0319972
0.1697444 -0.51777184 2.0318613
0.17881046 -0.51657069 2.0268815
0.1872267 -0.51351976 2.0145824
0.19251406 -0.50280732 1.9719279
0.19906002 -0.49614158 1.9454069
0.20858239 -0.49714196 1.9488877
0.21801654 -0.49784663 1.951146
0.22707881 -0.49766973 1.9499482
0.23611732 -0.49744684 1.9485086
0.24499112 -0.49689734 1.9457284
0.25427011 -0.49729151 1.9466435
0.26324376 -0.4969568 1.944643
0.27162522 -0.49566829 1.9389124
0.2792604 -0.49302888 1.9277798
0.28733346 -0.49140131 1.9206101
0.29588038 -0.49065098 1.9168726
0.30439535 -0.48988628 1.912959
0.31307411 -0.48935348 1.9101908
0.32207876 -0.48939639 1.9093713
0.33148691 -0.4900268 1.9108419
0.34011501 -0.48949483 1.9077184
0.34915847 -0.4895663 1.906886
0.35831469 -0.48986569 1.9069401
0.36770785 -0.49031788 1.9077634
0.37689999 -0.49061877 1.9076966
0.38609016 -0.49081954 1.9071776
0.39519399 -0.49097449 1.9064786
0.40764651 -0.49510971 1.9211617
0.41895303 -0.49777088 1.9300432
0.42774981 -0.49732283 1.9268621
0.43704847 -0.49759251 1.9261585
0.44665274 -0.49812734 1.9266568
0.45594412 -0.49822572 1.9254017
0.46320421 -0.49620602 1.9159669
0.45942962 -0.48272702 1.862042
0.46482077 -0.47908053 1.8462814
0.47274593 -0.47824925 1.8410951
0.48260218 -0.47924453 1.8431697
0.4926506 -0.4805057 1.8459668
0.50261354 -0.48158085 1.8479785
0.5117408 -0.48188674 1.8469712
0.52057648 -0.48185438 1.8446658
0.52879632 -0.48131549 1.8403629
0.53828621 -0.48187533 1.84014
0.55255705 -0.48662561 1.8559532
0.5643307 -0.48911929 1.862769
0.58116382 -0.49578986 1.8856159
0.6133315 -0.51513135 1.9565185
0.62459671 -0.51665765 1.9593388
0.63958251 -0.52111715 1.9731829
0.65443891 -0.52532786 1.9862171
0 0 0
0 0 0
0.85170865 -0.64563578 2.4249959
0.85925585 -0.64238989 2.4086201
0.87037289 -0.64192414 2.4026923
0.88924658 -0.6470564 2.4175251
0.90653431 -0.65097272 2.4277539
0.92083204 -0.65252852 2.4293647
0.93406636 -0.65343714 2.4281631
0.94635361 -0.65358675 2.4244375
0.95595026 -0.65197736 2.4137294
0.97094983 -0.65402043 2.4169252
0.98899454 -0.65798277 2.4270072
0.99542689 -0.6543228 2.4089708
1.0441357 -0.6622746 2.4254322
1.0606474 -0.66498059 2.4312518
1.0712496 -0.66400802 2.4235249
1.0892428 -0.66754907 2.4325585
1.1006532 -0.667032 2.4270878
1.1077093 -0.66382396 2.4121442
1.1205318 -0.66419226 2.4101214
1.1384531 -0.66754597 2.4193809
1.1498284 -0.66703176 2.414825
1.1661941 -0.66942704 2.4208734
1.180892 -0.6707378 2.4235926
1.1975552 -0.67320412 2.4304705
1.1990366 -0.66708034 2.4071209
0 0 0
0 0 0
0 0 0
0 0 0
0 0 0
0 0 0
0 0 0
0 0 0
-1.1418761 -0.54949176 2.0314388
-1.1403681 -0.55377346 2.0448208
-1.1308392 -0.55417204 2.0442009
-1.1205673 -0.55418134 2.0424976
-1.1055233 -0.55189061 2.0324063
-1.0930153 -0.55080742 2.0270464
-1.0809381 -0.54989797 2.0227463
-1.0796005 -0.554501 2.0390604
-1.0721582 -0.55600637 2.0442455
-1.0599079 -0.55507642 2.0406225
0 0 0
0 0 0
-0.90220159 -0.49175769 1.8103111
0 0 0
-0.88958371 -0.51093972 1.8897419
-0.81198978 -0.48195684 1.789799
-0.79914176 -0.47960788 1.7839104
-0.78286111 -0.47519124 1.7702881
-0.77338898 -0.47482398 1.7719473
-0.77580571 -0.48186615 1.8012968
0 0 0
-0.72396314 -0.4716337 1.7756473
-0.70979589 -0.46807417 1.7654893
-0.69083923 -0.46124703 1.7431566
0 0 0
0 0 0
-0.86553252 -0.64201587 2.4611428
-0.86135 -0.64787424 2.4878206
-0.85357738 -0.65130705 2.5048416
-0.8479389 -0.65634173 2.5283113
-0.84875518 -0.66659325 2.5719724
-0.83988774 -0.66951662 2.5869398
-0.8305344 -0.67197788 2.6004825
-0.82335603 -0.6764577 2.6214571
-0.81397223 -0.67914838 2.6357858
-0.806409 -0.68348026 2.6561854
-0.79859179 -0.68780553 2.6764281
-0.78353971 -0.68585986 2.6722801
-0.77330881 -0.68821502 2.6848025
-0.76749146 -0.69456154 2.7128487
-0.7551887 -0.69515318 2.7184489
-0.74009031 -0.69322675 2.7140181
-0.72446203 -0.69072723 2.7069778
-0.7069788 -0.68624192 2.6923816
-0.69432956 -0.68645436 2.6958537
-0.68433344 -0.68925285 2.7096617
-0.67480326 -0.69272149 2.7257817
-0.66456878 -0.69558197 2.7394412
-0.65268475 -0.69678867 2.7465115
-0.64153856 -0.69875205 2.7569251
-0.62446707 -0.69429421 2.7415562
-0.60875398 -0.69118208 2.7313876
-0.59595919 -0.69131267 2.7340233
-0.58283961 -0.69114405 2.7349508
-0.56908661 -0.69009978 2.7327566
-0.55392557 -0.68736053 2.7238388
-0.53886521 -0.68449974 2.7142484
-0.52353925 -0.68114632 2.7026882
-0.51097727 -0.68150502 2.7055049
-0.49684298 -0.67951345 2.699157
-0.48465154 -0.68025661 2.7036681
-0.4735114 -0.68250769 2.7137477
-0.46153343 -0.68366969 2.7198465
-0.4482913 -0.68296212 2.7183347
-0.43495673 -0.68200874 2.7155828
-0.42209238 -0.681795 2.715945
-0.40873405 -0.68073457 2.7129312
-0.39472961 -0.67863226 2.7056732
0 0 0
0 0 0
-0.25981909 -0.51250386 2.0460591
-0.24886985 -0.50973499 2.0355864
-0.24252726 -0.51640737 2.0628207
-0.23393753 -0.518848 2.0728991
-0.22426181 -0.51883912 2.0735855
-0.21482347 -0.51946312 2.0766051
-0.20509812 -0.51940691 2.0767744
-0.19731525 -0.52467167 2.0982227
-0.18858631 -0.52764183 2.1104341
-0.17802171 -0.52550578 2.1021559
0 0 0
-0.15130727 -0.50201321 2.0088763
-0.14233951 -0.50352597 2.0153115
-0.13413107 -0.50818491 2.0340862
-0.12383968 -0.5047183 2.0205288
-0.11307213 -0.49885139 1.9973561
-0.10008883 -0.48126405 1.9271199
-0.091239721 -0.48203266 1.9303796
-0.083569862 -0.48986888 1.961946
-0.07402721 -0.48728952 1.9517382
-0.064888917 -0.48700455 1.9506578
-0.055991892 -0.48871252 1.9574988
-0.046972435 -0.4903675 1.9643749
-0.037868664 -0.49099323 1.9668193
-0.028814154 -0.49275929 1.974018
-0.019833157 -0.49802566 1.9952408
-0.011622049 -0.55229086 2.2124345
-0.0013232389 -0.55269605 2.2141271
0.0089745987 -0.55211174 2.2117169
0.0192162 -0.55054069 2.205354
0.029612657 -0.55158788 2.2097576
0.040059458 -0.5537836 2.2184145
0.049824905 -0.54759091 2.1934001
0.058365691 -0.53226829 2.132025
0.066730119 -0.51956505 2.0808794
0.076503918 -0.52005619 2.0827813
0.086148694 -0.51964366 2.0809987
0.095002711 -0.51501471 2.0623314
0.10427375 -0.51327801 2.0551832
0.11326232 -0.51054972 2.0440018
0.12254078 -0.50944066 2.0393047
0.1315621 -0.50749034 2.031178
0.14095822 -0.5073728 2.0303874
0.15057181 -0.50771528 2.0315659
0.16023907 -0.50823629 2.0332017
0.16955729 -0.50777435 2.0311615
0.17815949 -0.50519985 2.0203528
0.18512732 -0.49858436 1.9935819
0.19022198 -0.48762861 1.9494056
0.19864191 -0.48601261 1.9423311
0.20840441 -0.4876121 1.9482915
0.21805204 -0.48880979 1.9525824
0.22725075 -0.48893529 1.9525884
0.23637854 -0.48889485 1.9518695
0.24562843 -0.48909137 1.9520345
0.25478268 -0.48920009 1.9518484
0.26361752 -0.48858601 1.9487166
0.27221838 -0.48769626 1.9444873
0.2805717 -0.4862586 1.9381987
0.28753552 -0.48273191 1.9233447
0.29607806 -0.48198184 1.9195604
0.30477157 -0.48150736 1.9167533
0.313182 -0.4806186 1.912299
0.32196575 -0.48026866 1.9102328
0.33085266 -0.48013833 1.9086763
0.33955106 -0.4797422 1.9060636
0.34828976 -0.47941557 1.9036676
0.35795397 -0.48036215 1.9065669
0.3667604 -0.48011163 1.9044102
0.3758063 -0.4801732 1.9034306
0.38636693 -0.48219278 1.9101452
0.39639756 -0.48346862 1.9139041
0.40673953 -0.48498002 1.9185257
0.41778436 -0.48731184 1.9263813
0.42771548 -0.48819673 1.9283834
0.43642449 -0.48774296 1.9250954
0.44601503 -0.48826775 1.9256067
0.455259 -0.48839474 1.9245464
0.45430934 -0.47772735 1.8809222
0.45744863 -0.47180772 1.855749
0.46361962 -0.46911684 1.8434839
0.47234073 -0.46905437 1.8412625
0.48173657 -0.46964827 1.8418494
0.4925448 -0.4716289 1.8475689
0.50223005 -0.47236478 1.8485751
0.51160401 -0.47289911 1.8485509
0.5199306 -0.4724068 1.8443922
0.5291965 -0.47282204 1.8437768
0.53980929 -0.47435218 1.8474387
0.55015916 -0.47560346 1.8499397
0.56083947 -0.47715482 1.853357
0 0 0
0.61450094 -0.50662231 1.9624989
0.62632799 -0.50856298 1.9670318
0.63799459 -0.51031756 1.9707581
0 0 0
0.83110386 -0.62718928 2.4067998
0.84576315 -0.62940329 2.4112
0.85513943 -0.62762016 2.4002044
0.86640626 -0.62723207 2.394784
0.88751233 -0.63390273 2.4159653
0.90261376 -0.63616496 2.4202034
0.91662484 -0.63766623 2.4214389
0.93046302 -0.63901037 2.4219763
0.94332486 -0.63952154 2.4195707
0.9538973 -0.63862133 2.4115188
0.96487319 -0.63798255 2.4046907
0.97954679 -0.63971901 2.4068069
0.98742747 -0.6370815 2.3923907
1.0385392 -0.64667034 2.4149961
1.0569111 -0.65050918 2.4252751
1.0665972 -0.64896977 2.4153192
1.0745335 -0.64642358 2.4020295
1.094412 -0.65108055 2.4154065
1.1073213 -0.65149301 2.4133945
1.1288279 -0.65685529 2.4299099
1.1427712 -0.65783393 2.4302559
1.1532148 -0.65671521 2.4234715
1.1828207 -0.65947044 2.4286096
1.1936716 -0.65870029 2.4234943
0 0 0
0 0 0
0 0 0
0 0 0
0 0 0
0 0 0
-1.1131157 -0.52565181 1.9791253
-1.1194069 -0.53343141 2.0062521
-1.128257 -0.54251832 2.0385137
-1.1174312 -0.54233843 2.0360801
-1.108706 -0.54311979 2.0375354
-1.0944108 -0.54117072 2.0291734
-1.0807388 -0.53947085 2.0220275
0 0 0
-1.0606585 -0.53981793 2.0223477
0 0 0
-0.92073232 -0.48262194 1.8091794
-0.91744637 -0.49070761 1.8415414
-0.93857044 -0.50716251 1.9047245
0 0 0
0 0 0
-0.88578296 -0.49922028 1.8829825
-0.8137762 -0.47392428 1.795282
-0.79772568 -0.46984532 1.7824699
-0.79637533 -0.47437319 1.8027171
-0.78052157 -0.47026241 1.7901359
-0.77278304 -0.47103554 1.7961221
-0.76917744 -0.47434771 1.8120502
-0.77209288 -0.48178148 1.8439735
-0.73827016 -0.46625355 1.7877201
-0.72451669 -0.46311182 1.7790006
-0.70893359 -0.45878497 1.7656144
-0.68676442 -0.44999355 1.734953
0 0 0
0 0 0
0 0 0
0 0 0
0 0 0
-0.85754311 -0.6329838 2.4798732
-0.8500067 -0.63634562 2.4971845
-0.84645778 -0.64291638 2.5268247
-0.84349221 -0.65004385 2.5588975
-0.83677393 -0.65453333 2.5803225
-0.82573825 -0.65564305 2.5886214
-0.81874871 -0.66013438 2.6099656
-0.81118369 -0.66413563 2.629673
-0.80136037 -0.66654313 2.6427639
-0.7943821 -0.6713568 2.6652577
-0.78479195 -0.67408133 2.6794951
-0.77330506 -0.67531389 2.6877334
-0.76324701 -0.67777598 2.7007947
-0.75110853 -0.67852873 2.7066188
-0.73682648 -0.67724317 2.7046602
-0.7206459 -0.67413288 2.6952176
-0.70952308 -0.67581147 2.7046506
-0.69875973 -0.67789465 2.7155404
-0.6880154 -0.67998034 2.7267203
-0.67383206 -0.67876655 2.7243187
-0.66233236 -0.6802547 2.7326727
-0.65236402 -0.68339944 2.7476079
-0.64084703 -0.68500966 2.7563887
-0.62629408 -0.68336684 2.7519894
-0.61067808 -0.6804623 2.7424052
-0.59761167 -0.6803267 2.7438815
-0.58370757 -0.67920256 2.7413661
-0.56716341 -0.67487812 2.7258291
-0.54735047 -0.66645235 2.6932545
-0.53270406 -0.6640746 2.6854439
-0.52276003 -0.66746718 2.7008836
-0.50919378 -0.66636616 2.6977096
-0.49441507 -0.66359776 2.6881244
-0.48134884 -0.66291553 2.6868095
-0.47045571 -0.66546816 2.6983459
-0.45872918 -0.66685075 2.7053213
-0.44510609 -0.66533816 2.7005508
-0.43242335 -0.66539234 2.7017007
-0.42092341 -0.6672231 2.71033
-0.40798745 -0.66680986 2.7098458
-0.39347312 -0.66378248 2.6982973
-0.29220304 -0.50936764 2.0714417
-0.27573174 -0.49709928 2.0222466
-0.2655507 -0.49575853 2.0172265
-0.25996846 -0.50326729 2.0484838
-0.25211164 -0.5067699 2.0633845
0 0 0
-0.23342134 -0.50799233 2.0694554
-0.2242052 -0.50903291 2.0742092
-0.21473216 -0.50954616 2.0767498
-0.20531978 -0.51024622 2.079987
-0.19873857 -0.5185616 2.1142743
-0.18951549 -0.52029765 2.1216767
-0.17511585 -0.50734007 2.0693552
-0.16505979 -0.50604457 2.064321
-0.15208644 -0.49528357 2.0206041
-0.14208318 -0.49310848 2.0121691
-0.13263331 -0.49290946 2.0116687
-0.12374216 -0.49496862 2.0201893
-0.1133246 -0.49067411 2.0029085
-0.10037569 -0.47365159 1.9336617
-0.091493599 -0.4743413 1.936655
-0.082854927 -0.47656882 1.9458669
-0.074013151 -0.47801691 1.9518973
-0.064831816 -0.47735336 1.9492439
-0.055854563 -0.47866562 1.9548483
-0.046845216 -0.47959405 1.9586349
-0.037852351 -0.48115095 1.9649261
-0.028789863 -0.48347116 1.9745874
-0.019682555 -0.4853369 1.9822699
-0.011701734 -0.54273754 2.2167821
-0.0013234244 -0.54281294 2.2168751
0.0089815799 -0.5425849 2.2159438
0.019216361 -0.53861111 2.1999278
0.029586392 -0.54116702 2.2102284
0.039633755 -0.53802478 2.1972568
0.049795732 -0.53666437 2.1914942
0.066820882 -0.51089448 2.0860047
0.076529324 -0.51085126 2.0857682
0.086406618 -0.51141423 2.0880067
0.095001094 -0.50537467 2.063159
0.10412848 -0.50300777 2.0533078
0.11350024 -0.50210959 2.0494533
0.1223079 -0.49903932 2.0366702
0.13164254 -0.49839762 2.0337362
0.14111033 -0.49830383 2.0329747
0.15068601 -0.49850672 2.0336845
0.16017677 -0.49866959 2.0339055
0.16950019 -0.49806288 2.0311849
0.17767072 -0.49454015 2.0163145
0.18374027 -0.48558143 1.9794859
0.1908554 -0.48025867 1.9574263
0.19862208 -0.47682798 1.9430847
0.20830068 -0.47821751 1.9483254
0.21768992 -0.47890553 1.9504548
0.22713764 -0.47959512 1.9527167
0.23656563 -0.48018187 1.9545579
0.24567528 -0.4800317 1.9536505
0.25442684 -0.47938272 1.9504
0.26385057 -0.47988015 1.9517518
0.27262104 -0.47918767 1.9482023
0.2805666 -0.4772341 1.9395289
0.28861773 -0.47556886 1.9319717
0.29629064 -0.47323436 1.9218886
0.30461445 -0.47219205 1.9168096
0.31312677 -0.47148627 1.9130385
0.32192522 -0.47117093 1.9110391
0.33058396 -0.47072479 1.9082631
0.33918324 -0.4702976 1.9055046
0.34818146 -0.47034287 1.9045999
0.35644189 -0.46934754 1.8997285
0.36582375 -0.46997136 1.9010433
0.37601173 -0.47149417 1.9060494
0.38480395 -0.47130555 1.904011
0.39405563 -0.47153574 1.9039103
0.40601459 -0.47504756 1.9167409
0.41806915 -0.47851062 1.9292923
0.42751008 -0.47882369 1.9291315
0.43608353 -0.47823516 1.9252762
0.44479766 -0.47781676 1.9220463
0.45283037 -0.47669283 1.9159825
0.44883671 -0.46325716 1.8601788
0.45328671 -0.45876232 1.8405249
0.46366006 -0.46037424 1.8453205
0.47176594 -0.45971224 1.8409374
0.48080969 -0.46002695 1.8402271
0.49131224 -0.46158296 1.8446536
0.50178653 -0.46316904 1.8489467
0.51055157 -0.46314794 1.8466964
0.51931089 -0.46306673 1.8442062
0.52934247 -0.4641546 1.8463064
0.54071331 -0.46630764 1.8525671
0.55048066 -0.46702853 1.8530624
0.55988288 -0.46747029 1.8524437
0.61561209 -0.49814913 1.9684435
0.62744617 -0.49998093 1.9729486
0.63869041 -0.50135797 1.9753842
0 0 0
0.8264935 -0.61201108 2.3963933
0.83978891 -0.61323488 2.3971186
0.85169727 -0.61336875 2.3935738
0.86245507 -0.61273837 2.3868906
0.87922508 -0.61628306 2.3964512
0.89980114 -0.62236655 2.4157369
0.91101354 -0.62195438 2.4096892
0.92821407 -0.62553382 2.4190018
0.94014001 -0.6254856 2.4144931
0.95236838 -0.62571651 2.4107459
0.96416825 -0.62558234 2.4058232
0.97582942 -0.62544197 2.4005647
0.98787433 -0.62551814 2.3963683
1.0264971 -0.62723124 2.3897166
1.0508273 -0.63462865 2.4138036
1.0640785 -0.63536829 2.4121151
1.0769281 -0.63573396 2.4097075
1.090632 -0.63663089 2.409219
1.1073072 -0.63931227 2.4154577
1.127731 -0.64398533 2.4294894
1.1443274 -0.64644486 2.4354436
1.1466056 -0.64075506 2.4110222
1.1623009 -0.64264739 2.4155433
1.1800838 -0.64567429 2.4243035
1.1907958 -0.64480287 2.41873
0 0 0
0 0 0
0 0 0
0 0 0
0 0 0
0 0 0
0 0 0
0 0 0
0 0 0
0 0 0
-1.106698 -0.51728338 1.9824342
-1.1013768 -0.51954687 1.9892118
-1.1033471 -0.52529401 2.009655
-1.0893306 -0.52343804 2.0013514
-0.97359961 -0.49077097 1.8747253
-0.95286828 -0.48511913 1.8534306
-0.91903394 -0.47256801 1.80625
-0.91422051 -0.47482377 1.8159524
-0.94476384 -0.49573034 1.8971002
-0.93690056 -0.49663177 1.9023149
-0.92850322 -0.49732462 1.9067322
0 0 0
-0.88285583 -0.48295173 1.8558464
0 0 0
-0.82120216 -0.46917814 1.8133607
-0.8108542 -0.46849766 1.8136297
-0.80771196 -0.47198081 1.8302116
-0.79153961 -0.46777597 1.817278
-0.77791542 -0.46513066 1.8100495
-0.77006716 -0.46585074 1.8161436
-0.75077873 -0.46510002 1.8201445
-0.72350836 -0.45367557 1.7787527
-0.7086001 -0.4498148 1.7668438
-0.69042021 -0.44375324 1.7462184
-0.67433673 -0.43888086 1.7303646
-0.69195545 -0.45609871 1.8016988
-0.68480998 -0.45728827 1.8094952
-0.67985708 -0.45993027 1.8233058
-0.67275751 -0.46117082 1.8315279
0 0 0
-0.85565919 -0.61959261 2.4774663
-0.847947 -0.62274206 2.4941902
-0.84140545 -0.62693775 2.5147362
-0.83937538 -0.63458186 2.5495226
-0.83089656 -0.63759005 2.565243
-0.82350242 -0.64138085 2.5844927
-0.81757742 -0.64660215 2.6090453
-0.80919063 -0.64993781 2.626035
-0.79991192 -0.65271908 2.6408169
-0.78930867 -0.65441751 2.6510675
-0.78176284 -0.65874475 2.671998
-0.7728337 -0.66210306 2.6889491
-0.75903571 -0.66125387 2.6887367
-0.74865896 -0.66340435 2.7006392
-0.73242444 -0.66043288 2.6912422
-0.71904314 -0.65988028 2.6920424
-0.7091887 -0.66268742 2.7061124
-0.69766051 -0.66399914 2.7140031
-0.68470961 -0.66380113 2.7160852
-0.67210275 -0.66410673 2.719692
-0.65617019 -0.66106695 2.7095876
-0.64943874 -0.66735369 2.737721
-0.63943285 -0.67045605 2.7526457
-0.62681353 -0.67088288 2.7565963
-0.6127367 -0.66972721 2.7539523
-0.59894037 -0.66891539 2.7522631
-0.58425802 -0.66695595 2.7462063
-0.56011045 -0.65385056 2.6941235
-0.54325354 -0.6488387 2.6752498
-0.53131402 -0.64967906 2.6801405
-0.52096462 -0.65256137 2.6937306
-0.50688517 -0.65067995 2.6875725
-0.49243116 -0.64828652 2.6788495
-0.47898164 -0.6471411 2.6756287
-0.46703824 -0.64798141 2.6801782
-0.45458075 -0.64815742 2.6823337
-0.44027597 -0.64562476 2.6731889
-0.42869708 -0.64713329 2.680336
-0.41664588 -0.64789796 2.6846721
-0.4043465 -0.64838696 2.6875143
-0.2906298 -0.49687901 2.0611205
-0.27576786 -0.4877688 2.0238142
-0.2617031 -0.49697486 2.0634081
0 0 0
-0.24819104 -0.50880164 2.1133964
-0.23439075 -0.50042754 2.0791838
-0.22427827 -0.49953184 2.0759008
-0.21432221 -0.49890757 2.0738094
-0.20401767 -0.49752137 2.0684183
-0.19895804 -0.50917506 2.1175249
-0.19120094 -0.51483923 2.1413965
-0.1753317 -0.49825272 2.0726478
-0.16655013 -0.50083113 2.0836148
-0.15305609 -0.48880643 2.0340261
-0.14222145 -0.48430115 2.0153854
-0.13271099 -0.48390418 2.0141032
-0.12458691 -0.48887727 2.0351114
-0.11455058 -0.48660117 2.0256796
-0.10063285 -0.4658612 1.9395137
-0.091606773 -0.46589631 1.9398327
-0.08289922 -0.46772289 1.9476116
-0.074046284 -0.46906203 1.9533005
-0.064948536 -0.46943429 1.9549019
-0.055736266 -0.46836841 1.9507082
-0.046663761 -0.46835232 1.950631
-0.037581962 -0.46888557 1.953036
-0.02868918 -0.47192159 1.9655483
-0.01975736 -0.47824064 1.9919921
-0.011605007 -0.52837318 2.2008758
-0.0013227594 -0.53251511 2.2181981
0.0089399563 -0.53009093 2.2080307
0.019180244 -0.52773267 2.1981387
0.029302919 -0.52614564 2.1914594
0.039671287 -0.5277316 2.1979272
0.049685244 -0.52557778 2.1890368
0.057490904 -0.50481105 2.1022792
0.067012534 -0.50239694 2.0922365
0.076705672 -0.50219887 2.0910833
0.086157419 -0.50057721 2.0842109
0.095093817 -0.49624047 2.066035
0.10432488 -0.49439517 2.0581689
0.11361884 -0.49312258 2.0526235
0.12248364 -0.49031955 2.0407097
0.13163999 -0.48899427 2.0348842
0.14116354 -0.48904681 2.0350597
0.15062088 -0.48892576 2.0341182
0.16010585 -0.48883179 2.0335555
0.16944334 -0.48855734 2.0319762
0.1759688 -0.48038977 1.9977745
0.18226917 -0.47245109 1.9644704
0.1901971 -0.46949333 1.9515662
0.19878085 -0.46828297 1.9461859
0.20781557 -0.46804538 1.9447881
0.21779546 -0.46998939 1.9523916
0.22694707 -0.4700518 1.9521766
0.2361863 -0.47027424 1.9525639
0.24484242 -0.4693532 1.9481423
0.25422069 -0.46982399 1.9494981
0.26453272 -0.47203001 1.9579884
0.27208775 -0.46915719 1.9456677
0.28011909 -0.46741804 1.9376748
0.2886197 -0.46643937 1.9328386
0.29697692 -0.46532303 1.9276881
0.30469379 -0.46334913 1.9186141
0.31314808 -0.46257052 1.9144942
0.321962 -0.46228412 1.9126648
